//X Y Z Nx Ny Nz
-1.94504178 -3.74161577 2.68304253 -0.374261 -0.743620 0.554038
-1.90186238 -3.61740518 2.87657547 -0.364572 -0.730780 0.577103
-0.56539363 -2.53809595 4.26860142 -0.092943 -0.521909 0.847923
-0.27207005 -2.29289556 4.43253517 -0.036368 -0.448533 0.893026
-1.12309432 -2.96415734 3.86414838 -0.208388 -0.606641 0.767177
-2.03497124 -3.66892600 2.71479344 -0.416776 -0.729769 0.541973
-0.86814201 -2.80720472 4.04480696 -0.152851 -0.541658 0.826585
-1.77226055 -3.56208181 3.02527452 -0.375612 -0.710219 0.595403
-1.14252865 -2.84766436 3.94562602 -0.210019 -0.559540 0.801752
-1.76730573 -3.36712313 3.24315166 -0.363104 -0.658846 0.658846
-0.43445843 -2.07892060 4.52311420 -0.095652 -0.420036 0.902453
-1.26976705 -2.91893506 3.85233760 -0.266260 -0.575059 0.773572
-2.40479255 -3.51043534 2.61932659 -0.481387 -0.704590 0.521363
-2.10877466 -3.25913930 3.14701033 -0.417618 -0.660535 0.623931
-0.37719047 -1.86687350 4.62054062 -0.093492 -0.367193 0.925434
-1.47319269 -2.87834239 3.81038737 -0.308730 -0.567871 0.763026
-0.18459618 -1.45292306 4.77728128 -0.036292 -0.286584 0.957367
-0.05621962 -1.23585272 4.84177542 -0.020699 -0.259350 0.965562
-1.25815105 -2.58971548 4.08433056 -0.251845 -0.508325 0.823517
-1.37728941 -2.70971775 3.96716261 -0.264351 -0.530266 0.805566
-1.04183924 -2.25487208 4.33625269 -0.208270 -0.462988 0.861548
-0.95853305 -2.16457081 4.40059423 -0.196367 -0.441457 0.875532
-0.82467967 -1.81275070 4.58474684 -0.137834 -0.366165 0.920285
-0.81004173 -1.99096549 4.51127005 -0.151463 -0.392106 0.907365
-1.83357620 -2.84961104 3.67267013 -0.364572 -0.577103 0.730780
-1.91931033 -2.92549396 3.56816745 -0.375612 -0.595403 0.710219
-1.59246111 -2.60730600 3.95438814 -0.309381 -0.521981 0.794871
-2.53032804 -3.27393174 2.80315876 -0.519544 -0.654053 0.549808
-1.30824447 -2.37494564 4.19740057 -0.264286 -0.480661 0.836133
-2.04397845 -2.87842917 3.53731489 -0.416503 -0.585759 0.695278
-0.63205880 -1.58837104 4.69563437 -0.137077 -0.310799 0.940539
-0.77649117 -1.72840703 4.62375593 -0.150986 -0.336602 0.929464
-1.81013834 -2.60640359 3.86069608 -0.361844 -0.533841 0.764253
-2.57448697 -3.07027698 2.98679566 -0.520782 -0.621904 0.584826
-2.55725431 -3.22263169 2.83849025 -0.528449 -0.633125 0.565592
-0.23505512 -0.82742101 4.92255783 -0.036105 -0.173539 0.984165
-1.35498559 -2.24262691 4.25586319 -0.266540 -0.434079 0.860542
-2.20840740 -2.82980824 3.47771716 -0.429093 -0.561632 0.707424
-0.70262629 -1.35521364 4.75847483 -0.138509 -0.257231 0.956372
-2.83780026 -3.06982875 2.73753953 -0.569905 -0.613874 0.546230
-1.48386228 -2.24494791 4.21223879 -0.320750 -0.449050 0.833950
-0.95352292 -1.37326491 4.70893764 -0.195132 -0.280935 0.939680
-1.99334240 -2.59094453 3.78156400 -0.417854 -0.499786 0.758691
-0.84054792 -1.12194955 4.79677057 -0.150564 -0.226501 0.962303
-1.67886627 -1.99928486 4.26137352 -0.319340 -0.399561 0.859287
-1.43656516 -1.94145083 4.37601328 -0.309375 -0.376432 0.873262
-2.59235358 -2.76336384 3.25798082 -0.519544 -0.549808 0.654053
-1.17891252 -1.54683495 4.60354853 -0.252350 -0.304262 0.918555
-1.42740667 -1.57031250 4.52558756 -0.264991 -0.329408 0.906239
-2.43728042 -2.54418421 3.54469299 -0.477986 -0.524619 0.704488
-2.06305385 -2.40110016 3.86718273 -0.429082 -0.474764 0.768432
-3.19905400 -2.81627226 2.61268401 -0.622145 -0.578308 0.527727
-1.54261672 -1.69046319 4.44247341 -0.308711 -0.326607 0.893323
-1.54026842 -1.77275491 4.41111898 -0.319755 -0.350063 0.880462
-0.23190399 0.06802559 4.99156761 -0.035367 0.001010 0.999374
-2.09902239 -2.12849784 4.00445747 -0.427921 -0.427921 0.796095
-3.00407624 -2.67781496 2.96542311 -0.617045 -0.539280 0.573091
-3.06100178 -2.81359220 2.77342010 -0.623707 -0.552716 0.552716
-0.82037121 -0.67580384 4.88388062 -0.152408 -0.115830 0.981507
-1.97907770 -1.84452200 4.20281744 -0.375230 -0.365888 0.851662
-0.57601565 -0.16862534 4.96170712 -0.095026 -0.029491 0.995038
-0.07538956 0.44319895 4.97756529 -0.027088 0.087767 0.995773
-1.26243389 -1.05022299 4.71980095 -0.252291 -0.195014 0.947797
-0.77086812 -0.13280837 4.93581629 -0.138836 -0.028219 0.989913
-2.91802144 -2.41957402 3.25634098 -0.576775 -0.489334 0.654127
-0.30576098 0.38561326 4.97421741 -0.080796 0.058660 0.995003
-0.57093799 0.16383438 4.96232796 -0.095026 0.029491 0.995038
-1.70472157 -1.21420693 4.53868914 -0.319622 -0.244417 0.915479
-1.48746860 -1.19143534 4.62038040 -0.307647 -0.219748 0.925777
-1.14530277 -0.55884439 4.83451843 -0.209186 -0.085407 0.974139
-2.80173540 -2.09294796 3.57105041 -0.570108 -0.430490 0.699754
-1.20030391 -0.55058545 4.82090807 -0.264584 -0.110787 0.957978
-2.36931610 -1.63832068 4.08323908 -0.469352 -0.327124 0.820182
-0.86757874 0.18748055 4.91947937 -0.152949 0.057210 0.986577
-1.85141742 -0.89198762 4.55510283 -0.364097 -0.187046 0.912385
-2.61511660 -1.71837699 3.89617181 -0.520906 -0.338188 0.783764
-2.63117766 -1.77715886 3.85875440 -0.529493 -0.357853 0.769141
-1.22960114 -0.10937354 4.84209013 -0.252472 -0.028052 0.967198
-2.29694390 -1.52298689 4.16981316 -0.480357 -0.298854 0.824587
-3.36580896 -2.10846353 3.03388834 -0.660886 -0.431157 0.614274
-2.10712647 -1.15995407 4.38010836 -0.426867 -0.235151 0.873206
-2.99905205 -1.90437734 3.51761627 -0.615861 -0.394614 0.681905
-1.80161524 -0.62818003 4.61851263 -0.362027 -0.134546 0.922406
-1.94026101 -0.83133399 4.52983093 -0.375135 -0.159963 0.913064
-2.96024513 -1.73388815 3.63552332 -0.576414 -0.367402 0.729906
-1.56191862 -0.40382499 4.72944593 -0.319873 -0.082930 0.943824
-3.35382438 -1.99632633 3.12122345 -0.667927 -0.409374 0.621520
-0.92407298 0.46968219 4.88936901 -0.194353 0.114104 0.974273
-1.83183086 -0.35501614 4.63570881 -0.362979 -0.081704 0.928208
-1.70335507 -0.21973456 4.69435453 -0.319907 -0.026554 0.947077
-3.48347306 -1.97538161 2.98982882 -0.704483 -0.391013 0.592294
-1.25455534 0.44863170 4.81594419 -0.252695 0.085078 0.963798
-2.88661337 -1.34822810 3.85014272 -0.578678 -0.280619 0.765758
-3.80733848 -1.87792563 2.63928819 -0.748723 -0.394841 0.532461
-1.48592734 0.38784087 4.75659752 -0.308819 0.055101 0.949523
-2.74751139 -1.08192289 4.03309441 -0.528771 -0.219172 0.819979
-1.43218434 0.45759109 4.76753855 -0.264584 0.110787 0.957978
-2.28376698 -0.55630416 4.41106939 -0.469191 -0.127700 0.873815
-1.05786884 1.10736775 4.75827789 -0.212287 0.196266 0.957295
-3.72817540 -1.71296346 2.85339880 -0.745866 -0.349371 0.567118
-3.77678275 -1.75270510 2.76470399 -0.749290 -0.362455 0.554247
-2.73071527 -0.82691222 4.10373735 -0.528659 -0.172226 0.831178
-2.42346478 -0.59361583 4.33047676 -0.478106 -0.100728 0.872507
-3.22349811 -1.39238596 3.55742884 -0.661887 -0.275919 0.696975
-1.88767350 0.27960926 4.61819744 -0.374721 0.054288 0.925547
-2.94012451 -0.98229390 3.92036319 -0.577828 -0.187527 0.794323
-2.76088500 -0.87172890 4.07432413 -0.569949 -0.166924 0.804546
-1.45879793 0.81329525 4.71022272 -0.306995 0.163823 0.937505
-3.56145573 -1.52723408 3.15595269 -0.709525 -0.297647 0.638734
-1.39347434 1.16918743 4.65491724 -0.266232 0.221628 0.938084
-2.48955107 -0.13421278 4.33353186 -0.479869 -0.050874 0.875864
-3.21816087 -1.15352607 3.64715981 -0.661333 -0.237200 0.711600
-2.04592490 0.19540918 4.55541086 -0.417886 0.052404 0.906987
-2.93543077 -0.78885972 3.96783829 -0.577946 -0.141144 0.803776
-3.75442600 -1.50178599 2.93664575 -0.749248 -0.295546 0.592689
-1.64595056 1.11128783 4.58660126 -0.307647 0.219748 0.925777
-2.64159489 -0.30199832 4.23156071 -0.530413 -0.074965 0.844418
-3.62174320 -1.24287307 3.21312737 -0.709482 -0.258715 0.655517
-3.33361912 -1.11257470 3.55304265 -0.667151 -0.213053 0.713805
-1.50405991 1.40304458 4.55415010 -0.307737 0.272734 0.911545
-3.45354605 -1.13800538 3.43054438 -0.709771 -0.219951 0.669213
-2.45970035 0.18085626 4.34715176 -0.479869 0.050874 0.875864
-3.20760417 -0.59077650 3.78802800 -0.623352 -0.113471 0.773664
-4.02918005 -1.22359395 2.69359374 -0.815806 -0.243039 0.524778
-1.71205795 1.12665570 4.55947256 -0.362607 0.242228 0.899912
-1.67260087 1.42680049 4.48813200 -0.318711 0.297958 0.899803
-2.29795694 0.67801416 4.38561487 -0.469191 0.127700 0.873815
-2.03886104 1.02693176 4.44530487 -0.417561 0.210994 0.883813
-3.17165351 -0.23583645 3.85615325 -0.616207 -0.046747 0.786196
-3.71308827 -0.98061681 3.19813538 -0.748906 -0.189149 0.635109
-3.71057463 -0.82586092 3.24428439 -0.745009 -0.172160 0.644455
-2.64042211 0.53041542 4.20960712 -0.520802 0.098995 0.847918
-3.53495312 -0.70627886 3.46107268 -0.708814 -0.142967 0.690755
-2.30342054 0.74191827 4.37330437 -0.480639 0.153396 0.863398
-3.35835767 -0.34784603 3.68486142 -0.661088 -0.064813 0.747504
-2.04576564 1.20384634 4.39842510 -0.426867 0.235151 0.873206
-3.02241349 0.00719403 3.98023558 -0.615457 0.001371 0.788169
-2.75928354 0.43957064 4.14500141 -0.568594 0.072677 0.819402
-2.96750736 0.29655010 4.01139688 -0.578214 0.046426 0.814564
-2.74290228 0.53951526 4.14413071 -0.528410 0.123732 0.839925
-2.40169048 0.97167730 4.27310419 -0.478876 0.202659 0.854171
-4.14512539 -0.96940857 2.61915350 -0.819935 -0.195511 0.538035
-3.00321412 0.32677129 3.98301268 -0.616207 0.046747 0.786196
-3.83131266 -0.69955963 3.13436484 -0.782623 -0.142159 0.606046
-1.97295976 1.83216608 4.21084213 -0.375230 0.365888 0.851662
-1.74568868 1.88125825 4.28945875 -0.363898 0.392010 0.844930
-2.86065745 0.46723562 4.07071304 -0.578378 0.094222 0.810309
-3.57283759 -0.29228029 3.48201537 -0.710057 -0.061932 0.701415
-0.07596516 3.94771767 3.06415009 -0.029373 0.793061 0.608433
-2.34853268 1.41439652 4.17784452 -0.469482 0.277351 0.838250
-3.31745219 0.05158444 3.73733497 -0.662216 0.021001 0.749018
-4.02960634 -0.80067754 2.84734225 -0.817737 -0.150440 0.555584
-2.09826493 1.66455758 4.21877527 -0.427258 0.333355 0.840431
-3.96932960 -0.59475785 2.97829318 -0.785941 -0.125810 0.605367
-3.78900576 -0.40193182 3.23439097 -0.748472 -0.076729 0.658713
-3.64434695 -0.29824045 3.40838552 -0.744925 -0.058848 0.664548
-2.65660977 1.10194623 4.08644867 -0.528771 0.219172 0.819979
-0.00614046 4.12413883 2.82577705 -0.029097 0.827194 0.561162
-0.24941513 3.99912143 2.98604608 -0.035021 0.802692 0.595365
-2.34178352 1.58501458 4.12017155 -0.469352 0.327124 0.820182
-3.32146096 0.31651777 3.72028661 -0.661088 0.064813 0.747504
-3.32675052 0.20788564 3.72324038 -0.668552 0.044002 0.742362
-4.02031040 -0.68385935 2.89212871 -0.820985 -0.131181 0.555676
-1.93443418 2.37062907 3.95189667 -0.376423 0.462921 0.802502
-2.88889790 1.03129530 3.94525647 -0.568901 0.214301 0.793994
-0.56382871 3.82350087 3.17049432 -0.094875 0.780894 0.617417
-3.26544356 0.62869257 3.73143005 -0.662058 0.107640 0.741682
-3.41367841 0.34471262 3.63561797 -0.667044 0.086117 0.740025
-4.21987104 -0.37602875 2.65228057 -0.850616 -0.066081 0.521618
-2.02916932 2.18773770 4.01009130 -0.427921 0.427921 0.796095
-3.95898366 -0.23643337 3.04115701 -0.786264 -0.052607 0.615646
-0.76551181 3.81477189 3.13583422 -0.149183 0.760982 0.631389
-0.48854136 4.24705553 2.58798862 -0.092889 0.844573 0.527322
-1.33851552 3.42737627 3.38225079 -0.261831 0.693456 0.671240
-1.41796899 3.36062407 3.41862345 -0.290754 0.657007 0.695560
-2.44036269 2.07163525 3.83849001 -0.470620 0.418510 0.776767
-3.27653193 0.73802310 3.70057511 -0.661518 0.152891 0.734179
-4.04804993 -0.29563525 2.91668463 -0.818038 -0.049279 0.573049
-1.11848319 3.68313718 3.18790460 -0.213278 0.730127 0.649175
-2.05494261 2.45629716 3.83628559 -0.417854 0.499786 0.758691
-2.15861797 2.33709192 3.85350108 -0.429082 0.474764 0.768432
-0.67562300 3.94403362 2.99411821 -0.151492 0.793458 0.589469
-1.72846055 2.98841286 3.61517096 -0.364572 0.577103 0.730780
-1.51054478 3.19626117 3.53287005 -0.308006 0.653101 0.691803
-1.70835412 3.07746673 3.54898000 -0.319115 0.630131 0.707885
-3.31139326 0.88528699 3.63666964 -0.666913 0.172451 0.724905
-1.10626495 3.87196326 2.96007276 -0.208388 0.767177 0.606641
-2.10506701 2.74742961 3.60452342 -0.416776 0.541973 0.729769
-1.95902753 2.93301940 3.54088283 -0.375612 0.595403 0.710219
-2.68550873 2.12194443 3.64224005 -0.519328 0.427003 0.740248
-3.49297976 0.84001076 3.47394085 -0.705227 0.162979 0.689995
-4.05477715 0.05557674 2.92141461 -0.817867 0.017930 0.575128
-3.01678777 1.46453094 3.70708966 -0.623465 0.290096 0.726041
-2.96397185 1.89676619 3.55077314 -0.576414 0.367402 0.729906
-3.81882596 0.63621855 3.16303992 -0.748304 0.114098 0.653470
-3.66092587 0.62070179 3.34652424 -0.743983 0.136222 0.654166
-1.70035851 3.51008868 3.12524438 -0.322020 0.707150 0.629477
-2.68010235 2.20275450 3.59687209 -0.529212 0.446264 0.721653
-2.59609365 2.39177227 3.53737593 -0.520152 0.470298 0.712925
-3.51201200 0.95431203 3.42521119 -0.710394 0.182585 0.679708
-3.52128744 1.02036774 3.39594460 -0.704680 0.202886 0.679900
-3.39265895 1.34777081 3.41452599 -0.661887 0.275919 0.696975
-2.09305549 3.03517723 3.37333608 -0.428099 0.601337 0.674630
-2.91615129 2.05245972 3.50099325 -0.577559 0.408759 0.706641
-1.53287268 3.82614517 2.82479310 -0.308730 0.763026 0.567871
-2.57081985 2.49345422 3.48593497 -0.520487 0.510445 0.684499
-3.52908754 1.16557539 3.34102035 -0.704880 0.241268 0.667034
-2.47709870 2.83448386 3.28810716 -0.480515 0.564228 0.671381
-3.28750372 1.58732831 3.41258073 -0.662730 0.315972 0.678934
-4.17330599 0.30812591 2.73503661 -0.820660 0.066848 0.567493
-2.20708060 3.10482550 3.23615670 -0.428675 0.638842 0.638842
-1.96821749 3.44154668 3.04562092 -0.375612 0.710219 0.595403
-2.86590672 2.29352427 3.39131951 -0.578292 0.448302 0.681618
-3.75609899 0.95462877 3.15514994 -0.748906 0.189149 0.635109
-2.27156162 3.20183873 3.09369302 -0.467540 0.625063 0.625063
-3.41238737 1.57982183 3.29351139 -0.668291 0.333332 0.665039
-3.94304752 0.83900583 2.95395970 -0.784992 0.161217 0.598161
-2.00694609 3.83050251 2.50658488 -0.391712 0.768795 0.505487
-3.52264118 1.46733057 3.22701550 -0.709525 0.297647 0.638734
-3.48967123 1.60941803 3.19482374 -0.704815 0.319192 0.633524
-2.31734872 3.19668198 3.06437922 -0.478154 0.639216 0.602306
-4.26438713 0.55921149 2.54775262 -0.846295 0.123388 0.518228
-2.18922973 3.58894467 2.70367360 -0.416776 0.729769 0.541973
-2.88979936 2.69730306 3.05741191 -0.569905 0.546230 0.613874
-3.59526348 1.74519455 3.00211096 -0.705256 0.355082 0.613621
-2.52806473 3.42192721 2.62395000 -0.525604 0.676736 0.515528
-3.23941112 2.10993552 3.16902494 -0.660886 0.431157 0.614274
-3.37037539 2.01771164 3.08938813 -0.667927 0.409374 0.621520
-4.18236542 0.79082781 2.62202811 -0.842074 0.155392 0.516492
-3.53466916 1.85055697 3.00919724 -0.710563 0.369230 0.598973
-3.22931218 2.31527448 3.03285527 -0.662063 0.464282 0.588315
-4.11914158 1.09229016 2.61083341 -0.820936 0.228634 0.523251
-4.00591707 1.28550053 2.70021844 -0.785947 0.261982 0.560046
-3.57636452 2.01824594 2.84815121 -0.709244 0.405046 0.576984
-3.02064848 2.94580889 2.67968965 -0.617045 0.573091 0.539280
-3.88200903 1.53425610 2.74858618 -0.782201 0.310650 0.540053
-3.48081112 2.27929115 2.76876569 -0.703552 0.457392 0.543881
-3.46329045 2.53390980 2.56418467 -0.700153 0.489606 0.519684
-3.27629352 2.70087624 2.63576484 -0.661557 0.530256 0.530256
3.68260264 -2.17306209 2.58940244 0.742771 -0.423264 0.518787
3.56382346 -2.31855702 2.62619281 0.710048 -0.470594 0.523806
3.70818806 -2.10507822 2.60703850 0.742271 -0.416396 0.525021
3.92961025 -1.72758162 2.56090736 0.779550 -0.345574 0.522379
4.07592392 -1.34898424 2.56062460 0.810529 -0.277493 0.515791
3.57492661 -2.22383046 2.69336295 0.703552 -0.457392 0.543881
3.70469689 -1.92845201 2.74421906 0.743533 -0.384022 0.547436
2.92930532 -3.09952927 2.60553837 0.576057 -0.623358 0.528756
2.99859953 -2.97486687 2.67405581 0.617045 -0.573091 0.539280
2.71199894 -3.29034233 2.60677671 0.528831 -0.666495 0.525473
3.76947403 -1.63813353 2.84310460 0.748706 -0.331500 0.574062
3.96503592 -1.33426797 2.73484135 0.785947 -0.261982 0.560046
2.39599013 -3.48625016 2.66028166 0.481387 -0.704590 0.521363
4.27829313 -0.61389780 2.51230049 0.845319 -0.120346 0.520531
4.22313213 -0.77238721 2.56107569 0.842074 -0.155392 0.516492
3.44603777 -1.90317798 3.08161044 0.710563 -0.369230 0.598973
2.66473556 -3.13758850 2.83317518 0.528449 -0.633125 0.565592
2.69988132 -3.23636603 2.68717980 0.519544 -0.654053 0.549808
3.78125477 -1.56800604 2.86800098 0.744836 -0.316917 0.587182
2.97039723 -2.72979140 2.95104504 0.577185 -0.560259 0.594111
4.00576591 -1.05518818 2.79886174 0.785788 -0.227832 0.575005
3.00489140 -2.62053418 3.01485538 0.615842 -0.507859 0.602344
3.34631562 -2.04356217 3.09821749 0.667927 -0.409374 0.621520
4.25399780 -0.56101513 2.56431389 0.846295 -0.123388 0.518228
2.59023690 -3.03367233 3.01042771 0.529052 -0.600043 0.600043
3.31943560 -1.96852207 3.17474198 0.662699 -0.394975 0.636258
2.35537982 -3.17596507 3.05605936 0.478154 -0.639216 0.602306
2.70096064 -2.75744772 3.17472386 0.528449 -0.565592 0.633125
1.95253599 -3.77715802 2.62890553 0.361844 -0.764253 0.533841
3.26116109 -1.69040465 3.38977170 0.668291 -0.333332 0.665039
2.38589692 -3.07700396 3.13253665 0.467540 -0.625063 0.625063
3.75917768 -1.01923800 3.13159204 0.744983 -0.209091 0.633468
2.96365881 -2.29256082 3.30919576 0.578292 -0.448302 0.681618
3.02049327 -2.01347446 3.43523717 0.615861 -0.394614 0.681905
2.08634806 -3.30924726 3.10889697 0.417618 -0.660535 0.623931
3.30051446 -1.51950336 3.43134737 0.667673 -0.294420 0.683761
1.33497322 -4.04328346 2.61530733 0.264351 -0.805566 0.530266
4.22343874 -0.05993159 2.67205143 0.851642 -0.012186 0.523983
3.58346581 -1.12616718 3.29663444 0.709771 -0.219951 0.669213
2.58992887 -2.57852626 3.40808344 0.520487 -0.510445 0.684499
1.53483629 -3.74441195 2.93217373 0.320573 -0.742634 0.587986
3.69175386 -0.83650863 3.26318002 0.745009 -0.172160 0.644455
3.76784277 -0.81820714 3.18014169 0.749649 -0.152343 0.644064
2.82503557 -2.17693782 3.50027895 0.570108 -0.430490 0.699754
1.87913108 -3.34698534 3.19943905 0.373904 -0.673687 0.637449
3.95192361 -0.54123843 3.01134324 0.783056 -0.107248 0.612635
4.13509703 -0.22727698 2.79853606 0.818038 -0.049279 0.573049
2.44839239 -2.63548684 3.46915245 0.477986 -0.524619 0.704488
2.24662185 -2.83816862 3.44784474 0.469564 -0.546432 0.693485
1.28010273 -3.93322349 2.80372906 0.251749 -0.792773 0.555098
2.62082720 -2.36492157 3.53699517 0.520152 -0.470298 0.712925
1.61919987 -3.60705662 3.05661058 0.307692 -0.729762 0.610551
2.87758851 -1.78543901 3.67505789 0.576414 -0.367402 0.729906
3.84357929 -0.41402802 3.16914892 0.782539 -0.073498 0.618249
3.15983105 -1.47011507 3.58207536 0.623465 -0.290096 0.726041
0.93265796 -4.02054787 2.81886125 0.210019 -0.801752 0.559540
3.38001251 -1.14992809 3.49788642 0.661333 -0.237200 0.711600
2.63412976 -2.01544952 3.73767161 0.530022 -0.402029 0.746625
1.50340629 -3.38383794 3.35694671 0.319598 -0.670021 0.670021
3.81716633 -0.30668151 3.21346569 0.748472 -0.076729 0.658713
3.01547050 -1.38980997 3.73561597 0.618078 -0.268522 0.738834
2.11088562 -2.67072511 3.65829873 0.416776 -0.541973 0.729769
1.13760638 -3.75262475 3.10020185 0.208388 -0.767177 0.606641
1.30455029 -3.48432302 3.33576441 0.265294 -0.700566 0.662440
2.62668633 -1.87063694 3.81762147 0.519578 -0.382761 0.763893
0.29794049 -4.30460548 2.52447748 0.080564 -0.857931 0.507409
2.03713179 -2.37296438 3.89895773 0.429082 -0.474764 0.768432
1.00334716 -3.69948983 3.20632815 0.209403 -0.730582 0.649923
2.32895827 -2.13440084 3.87195659 0.470620 -0.418510 0.776767
1.25121474 -3.30794716 3.53074408 0.265294 -0.662440 0.700566
3.58336806 -0.24651137 3.47537470 0.710057 -0.061932 0.701415
2.66785741 -1.55084348 3.93051219 0.530027 -0.313560 0.787878
2.52802134 -1.69891024 3.96237278 0.520906 -0.338188 0.783764
1.52849793 -3.10208654 3.60726333 0.307692 -0.610551 0.729762
0.23405331 -4.19016695 2.71270633 0.037516 -0.835081 0.548847
2.96407104 -1.23458254 3.83115005 0.576982 -0.234836 0.782269
0.69025409 -3.88910198 3.06035066 0.138789 -0.777516 0.613357
3.83703613 0.12904444 3.20192552 0.783532 0.035168 0.620355
0.97993648 -3.57689500 3.34863114 0.196463 -0.713145 0.672924
4.10146999 0.47144839 2.81632733 0.820473 0.099846 0.562899
4.05057764 0.38447613 2.90268564 0.817162 0.084732 0.570146
3.29154539 -0.40475968 3.73889899 0.667044 -0.086117 0.740025
2.40812421 -1.87101626 3.95920897 0.469694 -0.373511 0.799923
3.47427630 -0.18131094 3.58811188 0.705088 -0.041142 0.707925
0.05178609 -3.84638929 3.19166923 0.020898 -0.784355 0.619961
0.17227602 -3.98258734 3.01295185 0.035021 -0.802692 0.595365
2.94165254 -0.97497422 3.92098713 0.577828 -0.187527 0.794323
1.79110277 -2.41665435 3.99029207 0.364613 -0.489899 0.791869
1.91899002 -2.38296199 3.95195627 0.373669 -0.463477 0.803468
3.83754516 0.30819663 3.18915677 0.782539 0.073498 0.618249
3.20710826 -0.54050529 3.79579139 0.623352 -0.113471 0.773664
3.14450645 -0.70227265 3.82070184 0.616892 -0.135925 0.775222
2.21627998 -1.96324801 4.02698898 0.427649 -0.383135 0.818733
1.02879143 -3.39309406 3.52156901 0.196463 -0.672924 0.713145
0.94407183 -3.24809575 3.67927718 0.209403 -0.649923 0.730582
3.39709687 -0.30207503 3.65454626 0.668552 -0.044002 0.742362
2.27509570 -1.72363234 4.10326385 0.469352 -0.327124 0.820182
3.51098299 -0.05096243 3.55615163 0.705724 0.001381 0.708486
2.51264238 -1.18034935 4.15668726 0.520815 -0.245726 0.817540
0.54573131 -3.75323749 3.25456142 0.095354 -0.743761 0.661610
3.76092410 0.31069201 3.27667761 0.744925 0.058848 0.664548
1.94215691 -2.10349846 4.09626627 0.375262 -0.416430 0.828109
3.98390484 0.63751942 2.95053720 0.785941 0.125810 0.605367
3.07035184 -0.31406617 3.93073964 0.623799 -0.067399 0.778673
2.03796864 -1.84693003 4.17242241 0.416599 -0.360005 0.834771
0.98423815 -3.02863789 3.85099435 0.208388 -0.606641 0.767177
4.11293364 0.76355428 2.73474145 0.817737 0.150440 0.555584
3.21828842 -0.13427044 3.82247472 0.662216 -0.021001 0.749018
3.62471890 0.38041034 3.42185783 0.710057 0.061932 0.701415
2.62083578 -0.91191590 4.15619040 0.528659 -0.172226 0.831178
0.03955853 -3.60912108 3.45773458 0.020999 -0.706951 0.706951
0.49724773 -3.59169936 3.43954420 0.079898 -0.724890 0.684215
0.52530766 -3.45640159 3.57127333 0.095515 -0.703874 0.703874
2.90886927 -0.54650211 4.02711439 0.578378 -0.094222 0.810309
0.60016966 -3.38198614 3.63176298 0.136560 -0.658792 0.739828
3.95873976 0.71055925 2.96712303 0.782623 0.142159 0.606046
0.93064165 -2.94485688 3.92830014 0.194583 -0.586814 0.785994
3.39453030 0.18638371 3.66359067 0.668552 0.044002 0.742362
2.36863852 -0.99519259 4.28608942 0.478876 -0.202659 0.854171
1.17443502 -2.56648183 4.12429667 0.251845 -0.508325 0.823517
2.52686930 -0.74113601 4.24775696 0.519989 -0.148779 0.841116
0.63725817 -2.94865966 3.98522854 0.151492 -0.589469 0.793458
2.08534741 -1.21063483 4.37720394 0.426867 -0.235151 0.873206
4.17680264 1.05375099 2.53722143 0.820936 0.228634 0.523251
2.25147557 -0.90703773 4.36914015 0.468741 -0.178920 0.865026
2.73588824 -0.28154284 4.17429161 0.530413 -0.074965 0.844418
1.65139699 -1.88767397 4.32340002 0.309375 -0.376432 0.873262
0.01997189 -3.16919398 3.86504555 0.020898 -0.619961 0.784355
1.78160298 -1.43440235 4.44292259 0.363043 -0.293748 0.884258
3.03963852 0.22583874 3.96031284 0.616207 0.046747 0.786196
0.86925232 -2.35830188 4.32158613 0.196250 -0.489875 0.849417
1.31929994 -1.86900342 4.44254017 0.265145 -0.381989 0.885315
3.61765027 0.81564397 3.35223055 0.710394 0.182585 0.679708
0.37609524 -3.02368999 3.96068835 0.079252 -0.595111 0.799726
0.50964087 -2.92560196 4.01969862 0.094092 -0.571792 0.814985
3.71621418 1.14237511 3.14014864 0.748376 0.226544 0.623387
1.99328959 -0.72092277 4.52680731 0.417985 -0.156565 0.894861
2.23319960 -0.63667691 4.42583990 0.426785 -0.131864 0.894688
0.93692410 -2.18609190 4.39460230 0.196367 -0.441457 0.875532
1.12899411 -1.98227596 4.44723892 0.207883 -0.414293 0.886085
4.09254456 1.39888966 2.50759459 0.810529 0.277493 0.515791
4.05104065 1.50694263 2.51265574 0.807830 0.305110 0.504301
3.24708033 0.83061558 3.70799446 0.661518 0.152891 0.734179
1.27454007 -1.82353508 4.47437620 0.251685 -0.357658 0.899297
0.29344445 -2.75078869 4.16239214 0.081316 -0.549237 0.831701
2.86558533 0.50559050 4.06272078 0.578378 0.094222 0.810309
0.83193058 -2.30999684 4.35392809 0.151777 -0.443766 0.883196
2.23450637 -0.38773656 4.45392132 0.427597 -0.078370 0.900566
3.33182693 1.01014268 3.58529043 0.662255 0.192965 0.724004
2.40768552 0.02114104 4.37873125 0.478202 0.001325 0.878249
3.52591372 1.16032481 3.34628367 0.704880 0.241268 0.667034
3.62775970 1.19260216 3.22657919 0.709482 0.258715 0.655517
2.72179627 0.32380247 4.17942047 0.530413 0.074965 0.844418
1.67897403 -1.01016796 4.59772635 0.322091 -0.192692 0.926891
0.42508757 -2.33028054 4.39996958 0.094530 -0.472650 0.876166
0.35135496 -2.56864882 4.27267122 0.080207 -0.499533 0.862574
3.63973713 1.43239081 3.11284971 0.744883 0.282322 0.604520
2.97405314 0.65323573 3.96401215 0.577946 0.141144 0.803776
0.69172335 -1.93158174 4.55669308 0.151463 -0.392106 0.907365
3.14932418 0.90815419 3.77310133 0.616312 0.181988 0.766185
1.03076804 -1.70215285 4.58385468 0.194500 -0.336470 0.921389
0.91060865 -1.53670251 4.66858768 0.210520 -0.306597 0.928267
1.71186650 -0.50573963 4.66947746 0.362979 -0.081704 0.928208
0.58093458 -1.80128157 4.62580585 0.137834 -0.366165 0.920285
0.80627304 -1.61477137 4.66024399 0.150986 -0.336602 0.929464
3.02862477 1.25076890 3.77461123 0.624520 0.246977 0.740930
2.00368333 0.08798648 4.57845211 0.418483 0.001296 0.908224
1.02118814 -1.45446897 4.67055893 0.195132 -0.280935 0.939680
3.25024652 1.34104455 3.55242658 0.661887 0.275919 0.696975
3.55410361 1.59702682 3.12948418 0.704815 0.319192 0.633524
1.52982783 -0.37514520 4.74286127 0.319873 -0.082930 0.943824
0.49363452 -1.96242988 4.56959629 0.080009 -0.394620 0.915355
0.43009380 -1.81618321 4.63528538 0.093492 -0.367193 0.925434
3.80132437 1.77820075 2.71472120 0.749290 0.362455 0.554247
2.92007303 1.16901362 3.88326573 0.576982 0.234836 0.782269
1.86654925 -0.14113179 4.63332844 0.362999 -0.027128 0.931395
1.96791732 -0.02460832 4.59418678 0.375114 0.001272 0.926978
0.68080521 -1.43828928 4.73727703 0.152668 -0.282368 0.947080
0.64013553 -1.64528894 4.67558956 0.137077 -0.310799 0.940539
3.16381359 1.32546926 3.63538599 0.618078 0.268522 0.738834
2.08367205 0.40985546 4.52367544 0.427597 0.078370 0.900566
2.08131099 0.30435207 4.53279829 0.417886 0.052404 0.906987
2.33111262 0.68526524 4.36673212 0.469191 0.127700 0.873815
0.57051873 -1.60258770 4.69948101 0.093842 -0.313246 0.945024
3.75354981 1.86400461 2.72277808 0.743533 0.384022 0.547436
3.79854035 2.00539851 2.55504251 0.750486 0.397316 0.528120
0.60905677 -1.26436639 4.79629898 0.138509 -0.257231 0.956372
2.06063032 0.69201225 4.50031424 0.426785 0.131864 0.894688
0.87434250 -0.76935357 4.86099291 0.196251 -0.170258 0.965659
2.25949168 0.94185293 4.35759830 0.468741 0.178920 0.865026
3.46711779 2.07246017 2.94449711 0.709244 0.405046 0.576984
2.58501005 1.15371346 4.11862612 0.520815 0.245726 0.817540
2.94724941 1.62130892 3.69631338 0.578200 0.323728 0.748922
1.77526224 0.46770185 4.64799166 0.362979 0.081704 0.928208
3.05827808 1.89125168 3.47102213 0.623218 0.369984 0.688993
2.11994004 0.79640704 4.45447636 0.417985 0.156565 0.894861
0.37007314 -1.02896261 4.87669849 0.095601 -0.202376 0.974631
1.71610618 0.63076079 4.65183210 0.362027 0.134546 0.922406
0.76090455 -0.65002400 4.89609718 0.152408 -0.115830 0.981507
2.06640983 1.05631351 4.42534733 0.417561 0.210994 0.883813
3.36399412 2.24428821 2.93648767 0.668762 0.445285 0.595381
3.55507970 2.30961490 2.64601326 0.710048 0.470594 0.523806
2.69189095 1.79701376 3.80769801 0.529493 0.357853 0.769141
0.14789177 -0.92270559 4.90897512 0.036105 -0.173539 0.984165
2.77147388 1.91540301 3.69238591 0.569650 0.389069 0.723964
3.17621994 2.27038217 3.12085581 0.623245 0.449472 0.639954
0.90971774 0.02357738 4.91369486 0.196558 0.001149 0.980491
1.11084235 0.18576312 4.86884975 0.210181 0.027312 0.977281
3.46524811 2.55115891 2.54527426 0.699006 0.492141 0.518833
0.54849648 -0.38606215 4.95231724 0.095161 -0.085989 0.991741
0.09208073 -0.58630425 4.96213818 0.036931 -0.115268 0.992648
1.86111856 1.15269446 4.49232340 0.362607 0.242228 0.899912
3.16497397 2.35113955 3.07159209 0.623211 0.485466 0.613132
0.99565268 0.23854341 4.89098358 0.195803 0.056459 0.979017
3.30344796 2.51785684 2.77869034 0.660951 0.499497 0.560042
3.38544774 2.48880434 2.70625114 0.666345 0.511927 0.542139
2.25695682 1.86978459 4.04848671 0.469694 0.373511 0.799923
1.36541808 0.68728113 4.75845861 0.251564 0.140929 0.957525
1.53534353 1.07902980 4.63107872 0.307647 0.219748 0.925777
0.07915644 -0.29702139 4.98829079 0.037342 -0.058681 0.997578
1.67161930 1.61271763 4.42687416 0.318711 0.297958 0.899803
1.71734118 1.54676962 4.43208504 0.363043 0.293748 0.884258
1.76577771 1.57717860 4.40198946 0.374094 0.316071 0.871868
0.58580744 0.10280053 4.96245670 0.138836 0.028219 0.989913
3.20013738 2.58328676 2.84093976 0.621904 0.520782 0.584826
3.05930758 2.51953483 3.04396462 0.615842 0.507859 0.602344
2.00746417 1.72195208 4.24157906 0.416599 0.360005 0.834771
2.65175414 2.40050745 3.48966432 0.530255 0.486764 0.694183
0.30081171 0.07493067 4.98861980 0.081042 0.001052 0.996710
0.55602568 0.04062906 4.96732616 0.095026 0.029491 0.995038
2.97512174 2.56360769 3.09200335 0.578117 0.524182 0.625311
2.91911936 2.51483941 3.18327928 0.570236 0.509680 0.644249
1.77309132 1.69377959 4.35419512 0.364457 0.342928 0.865778
1.69715953 1.79882932 4.34395552 0.342929 0.345977 0.873326
0.84359300 0.68172604 4.87959480 0.152408 0.115830 0.981507
2.08820248 2.08651352 4.03212404 0.417830 0.408225 0.811647
0.95219874 0.98708040 4.80596066 0.205704 0.192432 0.959508
2.35852456 2.32331467 3.74294114 0.469149 0.462565 0.752285
0.02905403 0.37512323 4.98472404 0.027088 0.087767 0.995773
0.33731085 0.44845483 4.96694279 0.095161 0.085989 0.991741
2.06074953 2.38476324 3.87854123 0.429082 0.474764 0.768432
2.34541345 2.61981487 3.55096149 0.477986 0.524619 0.704488
2.72526431 2.72388554 3.18429184 0.528449 0.565592 0.633125
0.01335907 0.55322289 4.96840572 0.032433 0.121904 0.992012
2.79374266 2.95715380 2.90287542 0.570558 0.580716 0.580716
2.00620627 2.41610122 3.88949370 0.417854 0.499786 0.758691
2.51958561 2.98208714 3.12071705 0.520782 0.584826 0.621904
2.93357849 3.03596830 2.67577624 0.569905 0.613874 0.546230
2.17268348 2.83568454 3.49463415 0.429093 0.561632 0.707424
2.38612652 2.97164798 3.23250842 0.478154 0.602306 0.639216
2.44172263 2.87747145 3.27725077 0.470553 0.587773 0.658105
2.28000355 3.18588185 3.10330081 0.467540 0.625063 0.625063
2.69041920 3.33146739 2.57645035 0.528831 0.666495 0.525473
1.81947279 2.96080637 3.59124970 0.375612 0.595403 0.710219
2.42286825 3.33504343 2.82464170 0.480515 0.671381 0.564228
2.32307744 3.29286408 2.95483851 0.470553 0.658105 0.587773
1.58306408 3.18338847 3.51144767 0.322020 0.629477 0.707150
1.86643493 3.48891664 3.05237937 0.362541 0.697195 0.618453
1.58663583 3.47259331 3.22422242 0.308006 0.691803 0.653101
1.69383895 3.67002797 2.93945384 0.320573 0.742634 0.587986
1.71792591 3.91062188 2.59778881 0.361844 0.764253 0.533841
1.66200221 3.94677973 2.57841682 0.310427 0.791190 0.526929
1.05439627 3.92951632 2.90194750 0.194583 0.785994 0.586814
0.71516037 3.84920239 3.10522294 0.138789 0.777516 0.613357
0.85667562 4.02722311 2.83576965 0.151492 0.793458 0.589469
0.74784333 4.04998922 2.83003020 0.137941 0.811331 0.568080
0.63788581 4.20081854 2.63023114 0.133129 0.844128 0.519351
0.23143610 4.03629732 2.93720508 0.035021 0.802692 0.595365
0.50503725 4.19292259 2.67197680 0.092889 0.844573 0.527322
0.27717465 4.09744549 2.85082865 0.037516 0.835081 0.548847
0.02638723 4.22244787 2.67547321 0.028870 0.842743 0.537541
-2.56541419 -3.47702885 2.50000000 0.000978 0.000978 0.999999
-2.53907108 -3.48013020 2.50000000 0.000978 0.000978 0.999999
-3.21647501 -2.52201557 2.50000000 0.000978 0.000978 0.999999
-2.94007993 -3.10054779 2.50000000 0.000978 0.000978 0.999999
-2.71736670 -3.13065910 2.50000000 0.000978 0.000978 0.999999
-1.78527141 -3.91766477 2.50000000 0.000978 0.000978 0.999999
-1.46188128 -3.91118383 2.50000000 0.000978 0.000978 0.999999
-2.56360221 -3.10826755 2.50000000 0.000978 0.000978 0.999999
-2.68347001 -3.12125301 2.50000000 0.000978 0.000978 0.999999
-1.29693532 -4.01500273 2.50000000 0.000978 0.000978 0.999999
-0.88525522 -4.14318895 2.50000000 0.000978 0.000978 0.999999
-2.09297657 -3.34625125 2.50000000 0.000978 0.000978 0.999999
-1.47839940 -3.63975835 2.50000000 0.000978 0.000978 0.999999
-1.97415662 -3.27060938 2.50000000 0.000978 0.000978 0.999999
-3.63600039 2.34679961 2.50000000 0.000978 0.000978 0.999999
-4.00495529 1.16798651 2.50000000 0.000978 0.000978 0.999999
-3.57332110 2.08050489 2.50000000 0.000978 0.000978 0.999999
2.59043384 -3.41771555 2.50000000 0.000978 0.000978 0.999999
3.19163966 -2.91444492 2.50000000 0.000978 0.000978 0.999999
-0.11384571 -4.20935154 2.50000000 0.000978 0.000978 0.999999
0.91589236 -3.99144030 2.50000000 0.000978 0.000978 0.999999
0.37138510 -4.13067245 2.50000000 0.000978 0.000978 0.999999
1.26127887 -3.66692924 2.50000000 0.000978 0.000978 0.999999
1.54508138 -3.74810505 2.50000000 0.000978 0.000978 0.999999
2.49105453 -3.29483891 2.50000000 0.000978 0.000978 0.999999
1.90097702 -3.67506719 2.50000000 0.000978 0.000978 0.999999
1.55240190 -3.98972416 2.50000000 0.000978 0.000978 0.999999
2.23646474 -3.24320889 2.50000000 0.000978 0.000978 0.999999
1.73856115 -3.35816860 2.50000000 0.000978 0.000978 0.999999
0.57054722 -3.82685399 2.50000000 0.000978 0.000978 0.999999
3.16131520 -2.62890506 2.50000000 0.000978 0.000978 0.999999
2.31171441 -3.00323439 2.50000000 0.000978 0.000978 0.999999
3.20037079 -2.51186180 2.50000000 0.000978 0.000978 0.999999
-2.41387653 3.48859978 2.50000000 0.000978 0.000978 0.999999
-3.65400434 1.03383493 2.50000000 0.000978 0.000978 0.999999
-3.23059464 1.13056397 2.50000000 0.000978 0.000978 0.999999
-3.83585930 -0.16326070 2.50000000 0.000978 0.000978 0.999999
-2.49675059 2.59044361 2.50000000 0.000978 0.000978 0.999999
-3.66248322 0.54027510 2.50000000 0.000978 0.000978 0.999999
-2.59022021 2.20555258 2.50000000 0.000978 0.000978 0.999999
-3.84788418 -0.00621605 2.50000000 0.000978 0.000978 0.999999
-3.98171711 0.68990827 2.50000000 0.000978 0.000978 0.999999
-4.17899704 -0.52769446 2.50000000 0.000978 0.000978 0.999999
-3.47344542 0.88051128 2.50000000 0.000978 0.000978 0.999999
-3.90347624 0.79440200 2.50000000 0.000978 0.000978 0.999999
-3.40419865 0.65703416 2.50000000 0.000978 0.000978 0.999999
-2.95522380 1.90175068 2.50000000 0.000978 0.000978 0.999999
-4.16849899 0.33789188 2.50000000 0.000978 0.000978 0.999999
-3.36809444 2.08098602 2.50000000 0.000978 0.000978 0.999999
-3.65767956 1.58615899 2.50000000 0.000978 0.000978 0.999999
-2.98586130 3.03702736 2.50000000 0.000978 0.000978 0.999999
-3.20734787 1.87094617 2.50000000 0.000978 0.000978 0.999999
-3.17136574 1.94086981 2.50000000 0.000978 0.000978 0.999999
-2.63205504 2.61288166 2.50000000 0.000978 0.000978 0.999999
-3.05133057 2.91595221 2.50000000 0.000978 0.000978 0.999999
-3.36716270 2.57385445 2.50000000 0.000978 0.000978 0.999999
-3.76467133 1.51386476 2.50000000 0.000978 0.000978 0.999999
-3.67772269 1.82386899 2.50000000 0.000978 0.000978 0.999999
-1.99608302 3.67524433 2.50000000 0.000978 0.000978 0.999999
2.89085412 -1.22169471 2.50000000 0.000978 0.000978 0.999999
-3.90459275 -1.79549146 2.50000000 0.000978 0.000978 0.999999
-4.03184891 -1.32223737 2.50000000 0.000978 0.000978 0.999999
-3.84924531 -1.43336880 2.50000000 0.000978 0.000978 0.999999
-0.30164289 -1.24184132 2.50000000 0.000978 0.000978 0.999999
-3.01495743 -1.05108821 2.50000000 0.000978 0.000978 0.999999
-1.39583600 -1.08796227 2.50000000 0.000978 0.000978 0.999999
-3.25576973 -1.62872255 2.50000000 0.000978 0.000978 0.999999
-0.83321369 -1.21255553 2.50000000 0.000978 0.000978 0.999999
-3.12216783 -1.28056669 2.50000000 0.000978 0.000978 0.999999
-3.06057620 -1.68018413 2.50000000 0.000978 0.000978 0.999999
-2.41803670 -1.46297860 2.50000000 0.000978 0.000978 0.999999
-2.47601414 -1.71036649 2.50000000 0.000978 0.000978 0.999999
-3.72330117 -1.40078413 2.50000000 0.000978 0.000978 0.999999
-4.03848076 -1.04883385 2.50000000 0.000978 0.000978 0.999999
-3.37663770 -1.24896324 2.50000000 0.000978 0.000978 0.999999
-2.14086437 -1.37800133 2.50000000 0.000978 0.000978 0.999999
1.75549638 -1.21197736 2.50000000 0.000978 0.000978 0.999999
-3.83008790 -1.50933695 2.50000000 0.000978 0.000978 0.999999
-2.50208187 -1.04163468 2.50000000 0.000978 0.000978 0.999999
-0.86186981 -1.59580755 2.50000000 0.000978 0.000978 0.999999
-1.70278025 -1.32090473 2.50000000 0.000978 0.000978 0.999999
-2.51511097 -1.33791995 2.50000000 0.000978 0.000978 0.999999
1.02566147 -1.44753802 2.50000000 0.000978 0.000978 0.999999
-3.22332287 -1.57234406 2.50000000 0.000978 0.000978 0.999999
-2.71308160 -1.71860826 2.50000000 0.000978 0.000978 0.999999
-1.07412887 -1.08261502 2.50000000 0.000978 0.000978 0.999999
-0.36325932 -3.72072458 2.50000000 0.000978 0.000978 0.999999
2.38931274 -2.12950397 2.50000000 0.000978 0.000978 0.999999
-0.89373422 -3.65248394 2.50000000 0.000978 0.000978 0.999999
0.79369545 -3.29797792 2.50000000 0.000978 0.000978 0.999999
1.01605725 -3.03706670 2.50000000 0.000978 0.000978 0.999999
-0.27252263 -1.97402692 2.50000000 0.000978 0.000978 0.999999
-2.99779081 -2.38712740 2.50000000 0.000978 0.000978 0.999999
2.51623821 -2.25877094 2.50000000 0.000978 0.000978 0.999999
0.07357526 -3.18265176 2.50000000 0.000978 0.000978 0.999999
-1.39663482 -2.17072821 2.50000000 0.000978 0.000978 0.999999
-0.86228287 -2.01584530 2.50000000 0.000978 0.000978 0.999999
2.14326596 -1.97260904 2.50000000 0.000978 0.000978 0.999999
0.34094143 -3.41771078 2.50000000 0.000978 0.000978 0.999999
0.80604035 -1.84095955 2.50000000 0.000978 0.000978 0.999999
1.76217139 -2.50481510 2.50000000 0.000978 0.000978 0.999999
-2.06097794 -3.09503126 2.50000000 0.000978 0.000978 0.999999
-0.99272871 -3.87272048 2.50000000 0.000978 0.000978 0.999999
0.15798020 -2.67627740 2.50000000 0.000978 0.000978 0.999999
1.61330652 -1.79112768 2.50000000 0.000978 0.000978 0.999999
1.40564859 -2.07460642 2.50000000 0.000978 0.000978 0.999999
-2.33989501 -1.81774092 2.50000000 0.000978 0.000978 0.999999
-1.28314495 -1.66881871 2.50000000 0.000978 0.000978 0.999999
1.86738837 -1.91085958 2.50000000 0.000978 0.000978 0.999999
0.36898565 -3.53501797 2.50000000 0.000978 0.000978 0.999999
-3.24597454 -2.12468576 2.50000000 0.000978 0.000978 0.999999
1.45179653 -2.11761904 2.50000000 0.000978 0.000978 0.999999
2.55884504 -2.09276438 2.50000000 0.000978 0.000978 0.999999
-0.93343759 -2.30970168 2.50000000 0.000978 0.000978 0.999999
2.78460574 -1.72730863 2.50000000 0.000978 0.000978 0.999999
-1.73374724 -2.45564222 2.50000000 0.000978 0.000978 0.999999
-0.53342283 -2.00936842 2.50000000 0.000978 0.000978 0.999999
0.56809521 -2.47697043 2.50000000 0.000978 0.000978 0.999999
0.81322163 -2.01470041 2.50000000 0.000978 0.000978 0.999999
0.63627148 -3.11667633 2.50000000 0.000978 0.000978 0.999999
0.12446594 -2.65828323 2.50000000 0.000978 0.000978 0.999999
-1.09970129 -1.80453467 2.50000000 0.000978 0.000978 0.999999
-0.54605418 -2.08492208 2.50000000 0.000978 0.000978 0.999999
-1.05552316 -3.80156922 2.50000000 0.000978 0.000978 0.999999
1.73886812 -2.13220763 2.50000000 0.000978 0.000978 0.999999
0.84850955 -2.16881967 2.50000000 0.000978 0.000978 0.999999
2.44101524 -1.43485403 2.50000000 0.000978 0.000978 0.999999
-2.76825333 -1.99668384 2.50000000 0.000978 0.000978 0.999999
-1.22723830 -1.89002573 2.50000000 0.000978 0.000978 0.999999
-2.38059473 -2.15711451 2.50000000 0.000978 0.000978 0.999999
-2.36870813 -1.84778869 2.50000000 0.000978 0.000978 0.999999
0.83897495 -2.67909145 2.50000000 0.000978 0.000978 0.999999
-0.90025043 -3.51765990 2.50000000 0.000978 0.000978 0.999999
-0.96407509 -3.96023989 2.50000000 0.000978 0.000978 0.999999
-1.95804977 -1.93726778 2.50000000 0.000978 0.000978 0.999999
-1.63908315 -2.75584793 2.50000000 0.000978 0.000978 0.999999
-1.66305339 -1.93447781 2.50000000 0.000978 0.000978 0.999999
-0.43900806 -2.13367653 2.50000000 0.000978 0.000978 0.999999
-1.78269601 -3.34558821 2.50000000 0.000978 0.000978 0.999999
-0.16471672 -2.44440985 2.50000000 0.000978 0.000978 0.999999
-0.55973446 -1.73956752 2.50000000 0.000978 0.000978 0.999999
-0.97332859 -2.50617790 2.50000000 0.000978 0.000978 0.999999
-0.75041294 -4.00183582 2.50000000 0.000978 0.000978 0.999999
-1.41946363 -2.58869863 2.50000000 0.000978 0.000978 0.999999
-1.27235723 -2.56072545 2.50000000 0.000978 0.000978 0.999999
1.95409501 -1.86537147 2.50000000 0.000978 0.000978 0.999999
-2.32145405 -2.89210534 2.50000000 0.000978 0.000978 0.999999
-3.07736349 -1.92441094 2.50000000 0.000978 0.000978 0.999999
2.07062483 -2.57091188 2.50000000 0.000978 0.000978 0.999999
-0.03676970 -1.63091743 2.50000000 0.000978 0.000978 0.999999
-0.01295811 -1.61349583 2.50000000 0.000978 0.000978 0.999999
-1.40055752 -3.44629645 2.50000000 0.000978 0.000978 0.999999
-1.72311974 -3.24203920 2.50000000 0.000978 0.000978 0.999999
1.09358358 -2.62550640 2.50000000 0.000978 0.000978 0.999999
1.96861029 -1.56733286 2.50000000 0.000978 0.000978 0.999999
-0.65261638 -1.97236741 2.50000000 0.000978 0.000978 0.999999
-1.16058874 -3.44779372 2.50000000 0.000978 0.000978 0.999999
0.76222998 -1.57783926 2.50000000 0.000978 0.000978 0.999999
-0.73732758 -3.14322877 2.50000000 0.000978 0.000978 0.999999
-1.83897185 -1.88329756 2.50000000 0.000978 0.000978 0.999999
0.29596090 -1.94155705 2.50000000 0.000978 0.000978 0.999999
1.68257523 -1.84622526 2.50000000 0.000978 0.000978 0.999999
-0.13775218 -2.05805731 2.50000000 0.000978 0.000978 0.999999
0.61188555 -3.35797691 2.50000000 0.000978 0.000978 0.999999
-2.37286258 -1.77709162 2.50000000 0.000978 0.000978 0.999999
0.49522603 -3.62114143 2.50000000 0.000978 0.000978 0.999999
3.73667383 -1.64655447 2.50000000 0.000978 0.000978 0.999999
1.43365097 -3.24408603 2.50000000 0.000978 0.000978 0.999999
4.03276634 -1.46183491 2.50000000 0.000978 0.000978 0.999999
1.67827582 -2.87178731 2.50000000 0.000978 0.000978 0.999999
1.93763542 -3.05553675 2.50000000 0.000978 0.000978 0.999999
2.93139720 -2.16132188 2.50000000 0.000978 0.000978 0.999999
3.28562951 -2.08876801 2.50000000 0.000978 0.000978 0.999999
3.41834354 -2.31133127 2.50000000 0.000978 0.000978 0.999999
2.32248116 -2.66607308 2.50000000 0.000978 0.000978 0.999999
2.74335837 -2.49131632 2.50000000 0.000978 0.000978 0.999999
3.50124931 -1.90404880 2.50000000 0.000978 0.000978 0.999999
-1.93456590 -1.01358604 2.50000000 0.000978 0.000978 0.999999
3.54501057 -1.15510905 2.50000000 0.000978 0.000978 0.999999
1.60033631 -1.08538115 2.50000000 0.000978 0.000978 0.999999
3.86556697 -1.12422431 2.50000000 0.000978 0.000978 0.999999
4.25049686 -0.32837474 2.50000000 0.000978 0.000978 0.999999
-2.53204918 2.16281104 2.50000000 0.000978 0.000978 0.999999
-2.11416912 2.80950904 2.50000000 0.000978 0.000978 0.999999
-1.77556252 2.93200636 2.50000000 0.000978 0.000978 0.999999
-2.22170401 1.50982523 2.50000000 0.000978 0.000978 0.999999
-3.36284351 -0.19162178 2.50000000 0.000978 0.000978 0.999999
-0.13471091 3.74453425 2.50000000 0.000978 0.000978 0.999999
-3.15018892 0.60318470 2.50000000 0.000978 0.000978 0.999999
-0.82594293 2.55900764 2.50000000 0.000978 0.000978 0.999999
-3.34739161 0.58749056 2.50000000 0.000978 0.000978 0.999999
-1.14007008 3.15502453 2.50000000 0.000978 0.000978 0.999999
-1.62879145 3.38260627 2.50000000 0.000978 0.000978 0.999999
-2.98618150 0.39470196 2.50000000 0.000978 0.000978 0.999999
-2.19863224 2.50405431 2.50000000 0.000978 0.000978 0.999999
-1.76717329 2.59608698 2.50000000 0.000978 0.000978 0.999999
-3.00105524 0.15373874 2.50000000 0.000978 0.000978 0.999999
-2.22528362 1.03533292 2.50000000 0.000978 0.000978 0.999999
-0.91753376 3.40490627 2.50000000 0.000978 0.000978 0.999999
0.27749735 3.51229811 2.50000000 0.000978 0.000978 0.999999
-0.01928496 3.04085422 2.50000000 0.000978 0.000978 0.999999
-2.35927820 2.33735919 2.50000000 0.000978 0.000978 0.999999
0.34914631 3.89999652 2.50000000 0.000978 0.000978 0.999999
-3.12102652 0.54268241 2.50000000 0.000978 0.000978 0.999999
-2.73784661 0.36259532 2.50000000 0.000978 0.000978 0.999999
-1.00527215 3.09436083 2.50000000 0.000978 0.000978 0.999999
-3.30811787 0.47566581 2.50000000 0.000978 0.000978 0.999999
-1.69750047 3.80663824 2.50000000 0.000978 0.000978 0.999999
-1.03582764 3.66139889 2.50000000 0.000978 0.000978 0.999999
-1.48278165 3.12972856 2.50000000 0.000978 0.000978 0.999999
0.91514760 3.99010897 2.50000000 0.000978 0.000978 0.999999
-2.32914591 1.39491248 2.50000000 0.000978 0.000978 0.999999
-1.21683288 3.04307079 2.50000000 0.000978 0.000978 0.999999
-1.31080282 3.60929632 2.50000000 0.000978 0.000978 0.999999
-3.18409920 0.51564336 2.50000000 0.000978 0.000978 0.999999
-3.32641792 0.06685662 2.50000000 0.000978 0.000978 0.999999
-2.11089134 1.91535258 2.50000000 0.000978 0.000978 0.999999
-1.73970342 3.61815882 2.50000000 0.000978 0.000978 0.999999
-2.74780011 0.65993738 2.50000000 0.000978 0.000978 0.999999
-1.16463232 3.23204660 2.50000000 0.000978 0.000978 0.999999
-2.35543108 1.91779709 2.50000000 0.000978 0.000978 0.999999
-2.79075837 0.48137021 2.50000000 0.000978 0.000978 0.999999
-0.87809426 3.95223761 2.50000000 0.000978 0.000978 0.999999
-2.62262511 1.06301522 2.50000000 0.000978 0.000978 0.999999
0.03161779 3.79598093 2.50000000 0.000978 0.000978 0.999999
-0.99923337 3.00120974 2.50000000 0.000978 0.000978 0.999999
-1.86707854 3.21645212 2.50000000 0.000978 0.000978 0.999999
-3.80986309 -0.52780199 2.50000000 0.000978 0.000978 0.999999
1.22779095 3.79466391 2.50000000 0.000978 0.000978 0.999999
-2.71741414 0.49455976 2.50000000 0.000978 0.000978 0.999999
-0.56996870 2.33278275 2.50000000 0.000978 0.000978 0.999999
-0.35325390 2.98439646 2.50000000 0.000978 0.000978 0.999999
-0.30062687 2.49531603 2.50000000 0.000978 0.000978 0.999999
-0.41857448 3.69249010 2.50000000 0.000978 0.000978 0.999999
-1.61269653 1.51563191 2.50000000 0.000978 0.000978 0.999999
-1.82585013 1.16381454 2.50000000 0.000978 0.000978 0.999999
-2.11133432 1.88574004 2.50000000 0.000978 0.000978 0.999999
-1.81334221 3.05299878 2.50000000 0.000978 0.000978 0.999999
-2.91514897 1.13477850 2.50000000 0.000978 0.000978 0.999999
-0.59593618 2.38358450 2.50000000 0.000978 0.000978 0.999999
4.03231859 1.08166695 2.50000000 0.000978 0.000978 0.999999
3.52910376 2.04964352 2.50000000 0.000978 0.000978 0.999999
2.42687798 0.85225749 2.50000000 0.000978 0.000978 0.999999
0.26707059 2.75199389 2.50000000 0.000978 0.000978 0.999999
1.26159024 2.49319935 2.50000000 0.000978 0.000978 0.999999
0.61422873 1.25081491 2.50000000 0.000978 0.000978 0.999999
2.15564966 0.14848375 2.50000000 0.000978 0.000978 0.999999
0.76224089 -0.98250031 2.50000000 0.000978 0.000978 0.999999
-2.26491308 -0.95606518 2.50000000 0.000978 0.000978 0.999999
-1.02386284 -0.88482368 2.50000000 0.000978 0.000978 0.999999
-2.63776827 -0.84128410 2.50000000 0.000978 0.000978 0.999999
1.58660102 3.59035230 2.50000000 0.000978 0.000978 0.999999
2.14356971 2.03119016 2.50000000 0.000978 0.000978 0.999999
0.46165037 -0.58698559 2.50000000 0.000978 0.000978 0.999999
1.04863942 2.75022244 2.50000000 0.000978 0.000978 0.999999
1.66076767 0.73846889 2.50000000 0.000978 0.000978 0.999999
0.46752033 2.19142628 2.50000000 0.000978 0.000978 0.999999
2.38823175 0.32209706 2.50000000 0.000978 0.000978 0.999999
-0.52913320 -0.62891436 2.50000000 0.000978 0.000978 0.999999
2.17447424 2.79832435 2.50000000 0.000978 0.000978 0.999999
-0.70795649 -0.52416611 2.50000000 0.000978 0.000978 0.999999
1.72291946 -0.64401269 2.50000000 0.000978 0.000978 0.999999
1.11595941 1.68492937 2.50000000 0.000978 0.000978 0.999999
-1.10316348 -0.75023484 2.50000000 0.000978 0.000978 0.999999
-3.24484324 -0.63794768 2.50000000 0.000978 0.000978 0.999999
-3.39935970 -0.78432631 2.50000000 0.000978 0.000978 0.999999
