//X Y Z Nx Ny Nz
2.47514915 3.25228763 2.87878227 0.470553 0.658105 0.587773
1.63074923 3.05310845 3.60568309 0.319115 0.630131 0.707885
1.69252300 3.03697467 3.59216046 0.319115 0.630131 0.707885
1.63005328 3.05538607 3.60397029 0.319115 0.630131 0.707885
1.84932518 3.10009384 3.45538497 0.362541 0.618453 0.697195
1.74423373 3.13950920 3.47516251 0.362541 0.618453 0.697195
1.72543144 3.19270539 3.43763614 0.362541 0.618453 0.697195
1.91807902 3.12441492 3.39610958 0.373904 0.637449 0.673687
1.95762193 3.12110376 3.37724519 0.373904 0.637449 0.673687
1.85378599 3.21727347 3.34425235 0.373904 0.637449 0.673687
2.16667914 3.33262587 3.02848697 0.428099 0.674630 0.601337
2.07673621 3.38457537 3.03417063 0.428099 0.674630 0.601337
2.18250704 3.39229345 2.95016623 0.428099 0.674630 0.601337
1.99800324 3.35748124 3.11685467 0.417618 0.660535 0.623931
2.03108954 3.27777338 3.17921281 0.417618 0.660535 0.623931
2.01100397 3.25418544 3.21764708 0.417618 0.660535 0.623931
2.45616651 3.45942521 2.64102387 0.481387 0.704590 0.521363
2.47613645 3.42450047 2.66993999 0.481387 0.704590 0.521363
2.25217438 3.55736542 2.69489622 0.469564 0.693485 0.546432
2.24602914 3.52861238 2.73652959 0.469564 0.693485 0.546432
2.30166817 3.44797993 2.79079938 0.469564 0.693485 0.546432
2.23307562 3.61540532 2.63239169 0.437580 0.738107 0.513538
2.20446634 3.64197874 2.61852407 0.437580 0.738107 0.513538
1.52060294 3.08168578 3.63002920 0.322020 0.629477 0.707150
1.56979358 3.12866855 3.56602478 0.322020 0.629477 0.707150
1.87186003 3.39065361 3.15743876 0.373904 0.673687 0.637449
1.93185258 3.40798950 3.10370517 0.373904 0.673687 0.637449
1.93490171 3.38875151 3.12229872 0.373904 0.673687 0.637449
1.71722960 3.30704808 3.33084011 0.363104 0.658846 0.658846
1.74642551 3.37777472 3.24401402 0.363104 0.658846 0.658846
1.79006815 3.25154805 3.34617448 0.363104 0.658846 0.658846
2.06861186 3.53724408 2.86092567 0.416503 0.695278 0.585759
2.00492191 3.54192114 2.90082526 0.416503 0.695278 0.585759
2.04548264 3.45978618 2.96975040 0.416503 0.695278 0.585759
2.13694811 3.49784088 2.85890889 0.429093 0.707424 0.561632
2.22582603 3.46370125 2.83423710 0.429093 0.707424 0.561632
1.29759836 3.38271308 3.44385791 0.265379 0.675367 0.688080
1.67240798 3.39737225 3.26249433 0.319598 0.670021 0.670021
1.67048609 3.28058553 3.38020134 0.319598 0.670021 0.670021
1.63997853 3.31905460 3.35633922 0.319598 0.670021 0.670021
1.40479541 3.24699831 3.53134918 0.290754 0.657007 0.695560
1.56106627 3.28773689 3.42406106 0.308006 0.653101 0.691803
1.46387470 3.35824299 3.40083814 0.308006 0.653101 0.691803
1.49876058 3.21635389 3.51916313 0.308006 0.653101 0.691803
1.85707629 3.51018000 3.03376031 0.375612 0.710219 0.595403
1.82063913 3.59503102 2.95556593 0.375612 0.710219 0.595403
1.89165556 3.54033446 2.97606540 0.375612 0.710219 0.595403
1.82510340 3.49767947 3.06677485 0.362541 0.697195 0.618453
1.76641142 3.42161036 3.18667769 0.362541 0.697195 0.618453
2.05517411 3.68602490 2.67629910 0.416776 0.729769 0.541973
2.05292010 3.66071844 2.71202374 0.416776 0.729769 0.541973
2.15255451 3.62365985 2.68522906 0.416776 0.729769 0.541973
2.14519906 3.65413117 2.64969969 0.427310 0.737480 0.523000
2.09607983 3.68859339 2.64105988 0.427310 0.737480 0.523000
2.04050183 3.80249667 2.52319598 0.391712 0.768795 0.505487
1.48316002 3.42979836 3.31844091 0.308006 0.691803 0.653101
1.49653006 3.46198750 3.27800941 0.308006 0.691803 0.653101
1.44025552 3.48381281 3.28144741 0.308006 0.691803 0.653101
1.57229483 3.51293087 3.18727016 0.322020 0.707150 0.629477
1.51185954 3.56048942 3.16460729 0.322020 0.707150 0.629477
1.57920504 3.58756518 3.09988523 0.322020 0.707150 0.629477
1.72634470 3.61523914 2.98965693 0.364572 0.730780 0.577103
1.79075754 3.65665030 2.89678979 0.364572 0.730780 0.577103
1.85426068 3.64882994 2.86675787 0.364572 0.730780 0.577103
1.90506995 3.66644502 2.81108785 0.374261 0.743620 0.554038
1.84290230 3.74326563 2.75000620 0.374261 0.743620 0.554038
1.02778304 3.54035115 3.37664151 0.210081 0.714275 0.667590
1.14220631 3.49950480 3.38261175 0.237341 0.693161 0.680586
1.38524318 3.56219530 3.22086954 0.265294 0.700566 0.662440
1.19302619 3.52671742 3.33554697 0.265294 0.700566 0.662440
1.35238016 3.45995259 3.34241772 0.265294 0.700566 0.662440
1.17217410 3.52077937 3.35002685 0.261831 0.693456 0.671240
1.28288293 3.45787573 3.37224007 0.261831 0.693456 0.671240
1.65849018 3.63591862 3.00188756 0.320573 0.742634 0.587986
1.67367768 3.71427488 2.89449978 0.320573 0.742634 0.587986
1.69555438 3.75932264 2.82558632 0.320573 0.742634 0.587986
1.50607252 3.69835401 3.00483346 0.307692 0.729762 0.610551
1.48316574 3.67655683 3.04235721 0.307692 0.729762 0.610551
1.76598835 3.79134083 2.73546648 0.361844 0.764253 0.533841
1.79647970 3.77563572 2.73716760 0.361844 0.764253 0.533841
1.74995172 3.89722514 2.59514976 0.361844 0.764253 0.533841
1.81241870 3.89749217 2.55149388 0.365008 0.767329 0.527234
1.71462822 3.92688847 2.57641602 0.346441 0.799847 0.490126
1.11080825 3.62568545 3.25497723 0.213278 0.730127 0.649175
1.15295720 3.60929656 3.25958371 0.213278 0.730127 0.649175
1.12675428 3.63766503 3.23629141 0.213278 0.730127 0.649175
1.34016824 3.56603265 3.23481345 0.251471 0.722780 0.643701
1.22154999 3.62743711 3.21231627 0.251471 0.722780 0.643701
1.23274684 3.56080222 3.28280401 0.251471 0.722780 0.643701
1.38503397 3.65777349 3.11048651 0.265048 0.738007 0.620561
1.38830733 3.61540508 3.15957785 0.265048 0.738007 0.620561
1.24944139 3.72072196 3.09351134 0.265048 0.738007 0.620561
1.64844251 3.80689669 2.78763795 0.321632 0.776077 0.542454
1.67930102 3.80831790 2.76739311 0.321632 0.776077 0.542454
1.62666309 3.91201138 2.65037417 0.321632 0.776077 0.542454
1.45731151 3.90997910 2.75318503 0.308730 0.763026 0.567871
1.47269428 3.84232998 2.83570695 0.308730 0.763026 0.567871
1.60314894 3.95868611 2.59533000 0.310427 0.791190 0.526929
1.66507816 3.92735934 2.60563612 0.310427 0.791190 0.526929
1.39953244 4.04113579 2.58496642 0.288323 0.805098 0.518351
1.49033928 4.02218676 2.56370974 0.288323 0.805098 0.518351
1.54226756 3.99974704 2.56950116 0.288323 0.805098 0.518351
0.74864697 3.68480873 3.29457211 0.152688 0.748323 0.645523
0.99457204 3.68506908 3.22552109 0.206380 0.733967 0.647070
1.42748773 3.85945988 2.83669257 0.266260 0.773572 0.575059
1.33368349 3.81492686 2.93973422 0.266260 0.773572 0.575059
1.33218002 3.91472006 2.80638170 0.266260 0.773572 0.575059
1.36027145 3.75453520 3.00539207 0.253184 0.759551 0.599149
1.32518649 3.78787088 2.97797489 0.253184 0.759551 0.599149
1.27508211 3.80851054 2.97292566 0.253184 0.759551 0.599149
0.84256029 3.84003019 3.08712363 0.155481 0.756274 0.635512
0.82043278 3.71013236 3.24734902 0.155481 0.756274 0.635512
1.05976570 3.72746825 3.15563536 0.195830 0.750940 0.630666
0.88581890 3.83683872 3.07919049 0.195830 0.750940 0.630666
0.88601357 3.83045149 3.08674240 0.195830 0.750940 0.630666
1.05411971 3.83218002 3.02835417 0.208388 0.767177 0.606641
1.02960503 3.82777929 3.04236650 0.208388 0.767177 0.606641
1.02373767 3.87515426 2.98447251 0.208388 0.767177 0.606641
1.15926528 4.10495377 2.60559392 0.238615 0.826687 0.509560
1.15632308 4.15491867 2.52604961 0.238615 0.826687 0.509560
1.23532867 3.97708464 2.76143312 0.251749 0.792773 0.555098
1.28112566 3.94369912 2.78830361 0.251749 0.792773 0.555098
1.17022681 3.93695307 2.84832811 0.251749 0.792773 0.555098
1.35855532 4.02075672 2.63772726 0.264351 0.805566 0.530266
1.32505941 4.01957560 2.65626168 0.264351 0.805566 0.530266
0.71377003 3.76824212 3.20410395 0.149183 0.760982 0.631389
0.67962182 3.81331277 3.15791726 0.149183 0.760982 0.631389
1.01592278 3.88472724 2.97494173 0.194583 0.785994 0.586814
0.90248883 3.95995045 2.91173291 0.194583 0.785994 0.586814
0.89319611 3.91290760 2.97802162 0.194583 0.785994 0.586814
1.05978405 4.02515793 2.76491094 0.210019 0.801752 0.559540
1.01686502 3.98281384 2.84137607 0.210019 0.801752 0.559540
1.02868092 3.97049356 2.85456872 0.210019 0.801752 0.559540
0.66406524 3.90505815 3.04604721 0.138789 0.777516 0.613357
0.80732405 3.88495612 3.03932405 0.138789 0.777516 0.613357
0.75215793 3.91070557 3.01913762 0.138789 0.777516 0.613357
0.72428250 3.98614669 2.92502499 0.151492 0.793458 0.589469
0.76956487 3.98535490 2.91443205 0.151492 0.793458 0.589469
0.69695419 3.96095514 2.96589780 0.151492 0.793458 0.589469
0.88005084 4.17694426 2.60199094 0.195511 0.819935 0.538035
0.95048702 4.08657789 2.71385694 0.195511 0.819935 0.538035
0.95410752 4.06324196 2.74802542 0.195511 0.819935 0.538035
1.05753553 4.18572044 2.52053976 0.201626 0.826210 0.526046
1.04048061 4.13237047 2.61076403 0.201626 0.826210 0.526046
0.85962051 4.20248365 2.56857109 0.190399 0.847052 0.496237
0.21205963 3.84942007 3.18253231 0.052746 0.771226 0.634373
0.32931164 3.84709263 3.17504692 0.088803 0.775934 0.624532
0.32714891 3.89148808 3.12037826 0.088642 0.774524 0.626303
0.45041591 3.84590578 3.15924597 0.088642 0.774524 0.626303
0.43472740 3.86710262 3.13507056 0.094875 0.780894 0.617417
0.34804106 3.89572644 3.11211085 0.094875 0.780894 0.617417
0.44299179 3.92763090 3.05725741 0.094875 0.780894 0.617417
0.49645722 3.85294652 3.14354491 0.094875 0.780894 0.617417
0.08741698 3.90223050 3.12212682 0.029430 0.783394 0.620829
0.04898024 3.94042039 3.07497191 0.029373 0.793061 0.608433
0.01389635 3.99700642 3.00281668 0.029373 0.793061 0.608433
0.75857013 4.02700472 2.86025286 0.137941 0.811331 0.568080
0.67151701 4.05538368 2.84084630 0.137941 0.811331 0.568080
0.58572763 4.02225828 2.90897107 0.137941 0.811331 0.568080
0.77086711 4.11717415 2.72438645 0.152851 0.826585 0.541658
0.70758808 4.11755657 2.74150634 0.152851 0.826585 0.541658
0.69535136 4.15010881 2.69543624 0.152851 0.826585 0.541658
0.75001526 4.20840502 2.58862829 0.139689 0.839602 0.524935
0.71339697 4.19451332 2.62070704 0.139689 0.839602 0.524935
0.77436364 4.23852301 2.53377175 0.133129 0.844128 0.519351
0.76823622 4.24046707 2.53218842 0.133129 0.844128 0.519351
0.68752736 4.20852089 2.60492182 0.133129 0.844128 0.519351
0.51138920 3.98192668 2.97699142 0.079252 0.799726 0.595111
0.34329680 3.94774222 3.04548454 0.079252 0.799726 0.595111
0.37941188 4.01305628 2.95290232 0.079252 0.799726 0.595111
0.19578531 4.05005407 2.92089629 0.035021 0.802692 0.595365
0.21347052 3.94293237 3.06370926 0.035021 0.802692 0.595365
0.16739991 3.98363447 3.01184201 0.035021 0.802692 0.595365
0.52022010 4.10454702 2.80267835 0.094092 0.814985 0.571792
0.42545828 4.04017401 2.91026545 0.094092 0.814985 0.571792
0.35491771 4.09986496 2.83666921 0.094092 0.814985 0.571792
0.04127944 4.16276312 2.76699901 0.029097 0.827194 0.561162
0.13404080 4.06450224 2.90452051 0.029190 0.810370 0.585190
0.00564378 4.25672674 2.62268043 0.028759 0.855928 0.516295
0.25373185 4.25509882 2.61138344 0.028759 0.855928 0.516295
0.57402438 4.15683651 2.71782684 0.092889 0.844573 0.527322
0.49399650 4.27560949 2.54121184 0.092889 0.844573 0.527322
0.30227360 4.20275068 2.68813729 0.081316 0.831701 0.549237
0.29758090 4.23041296 2.64676356 0.081316 0.831701 0.549237
0.35756892 4.15618563 2.75086641 0.081316 0.831701 0.549237
0.38258499 4.14481020 2.76451111 0.081316 0.831701 0.549237
0.51347601 4.29733992 2.50237131 0.080564 0.857931 0.507409
0.30222437 4.27127647 2.58000207 0.080564 0.857931 0.507409
0.26643220 4.14790821 2.77481437 0.037516 0.835081 0.548847
0.25087079 4.20403481 2.69050789 0.037516 0.835081 0.548847
0.26124546 4.22159195 2.66312718 0.037516 0.835081 0.548847
0.02860774 4.19655943 2.71600938 0.028870 0.842743 0.537541
-3.34487867 -2.74512458 2.50000000 0.000978 0.000978 0.999999
-3.65723252 -2.29783249 2.50000000 0.000978 0.000978 0.999999
-2.96205688 -3.13312101 2.50000000 0.000978 0.000978 0.999999
-2.64406061 -3.39788079 2.50000000 0.000978 0.000978 0.999999
-2.17575598 -3.72043777 2.50000000 0.000978 0.000978 0.999999
-2.90544343 -2.73269463 2.50000000 0.000978 0.000978 0.999999
-3.77387238 -2.09341478 2.50000000 0.000978 0.000978 0.999999
-3.55119514 -2.24857068 2.50000000 0.000978 0.000978 0.999999
-3.67156720 -2.16658592 2.50000000 0.000978 0.000978 0.999999
-2.56379271 -3.03835487 2.50000000 0.000978 0.000978 0.999999
-3.84460592 -1.98576117 2.50000000 0.000978 0.000978 0.999999
-1.97239804 -3.48956299 2.50000000 0.000978 0.000978 0.999999
-2.68705034 -3.23376322 2.50000000 0.000978 0.000978 0.999999
-2.66166329 -3.24720049 2.50000000 0.000978 0.000978 0.999999
-1.59956503 -3.86477757 2.50000000 0.000978 0.000978 0.999999
-3.23248768 -2.82992864 2.50000000 0.000978 0.000978 0.999999
-1.52277029 -3.90255737 2.50000000 0.000978 0.000978 0.999999
-2.60536242 -3.24819827 2.50000000 0.000978 0.000978 0.999999
-2.16302395 -3.53607869 2.50000000 0.000978 0.000978 0.999999
-2.81027937 -3.11532378 2.50000000 0.000978 0.000978 0.999999
-2.54803038 -3.23088074 2.50000000 0.000978 0.000978 0.999999
-2.85244799 -3.13533425 2.50000000 0.000978 0.000978 0.999999
-2.92278647 -3.04043722 2.50000000 0.000978 0.000978 0.999999
-2.70382357 -3.24096203 2.50000000 0.000978 0.000978 0.999999
-2.99273825 -3.03046155 2.50000000 0.000978 0.000978 0.999999
-3.14209056 -2.84581852 2.50000000 0.000978 0.000978 0.999999
-2.23384786 -3.57828116 2.50000000 0.000978 0.000978 0.999999
-2.21436381 -3.65264797 2.50000000 0.000978 0.000978 0.999999
-2.18143940 -3.63696074 2.50000000 0.000978 0.000978 0.999999
-1.85107195 -3.78452754 2.50000000 0.000978 0.000978 0.999999
-1.64797544 -3.97381854 2.50000000 0.000978 0.000978 0.999999
-1.55933893 -4.00274849 2.50000000 0.000978 0.000978 0.999999
-2.37832332 -3.51510525 2.50000000 0.000978 0.000978 0.999999
-2.01000237 -3.74881887 2.50000000 0.000978 0.000978 0.999999
-2.00682282 -3.68346715 2.50000000 0.000978 0.000978 0.999999
-1.76533604 -3.82724690 2.50000000 0.000978 0.000978 0.999999
-1.97490573 -3.71441436 2.50000000 0.000978 0.000978 0.999999
-2.47767472 -3.42864442 2.50000000 0.000978 0.000978 0.999999
-3.25815725 -2.51978064 2.50000000 0.000978 0.000978 0.999999
-2.23296285 -3.35439134 2.50000000 0.000978 0.000978 0.999999
-3.14011502 -2.61067772 2.50000000 0.000978 0.000978 0.999999
-3.25369930 -2.64821458 2.50000000 0.000978 0.000978 0.999999
-3.31374454 -2.71401048 2.50000000 0.000978 0.000978 0.999999
-1.96309686 -3.53484702 2.50000000 0.000978 0.000978 0.999999
-1.83587503 -3.65233302 2.50000000 0.000978 0.000978 0.999999
-1.35837138 -3.97884965 2.50000000 0.000978 0.000978 0.999999
-1.59004092 -3.85689616 2.50000000 0.000978 0.000978 0.999999
-2.75903749 -2.90344262 2.50000000 0.000978 0.000978 0.999999
-3.19438934 -2.66435218 2.50000000 0.000978 0.000978 0.999999
-3.43757272 -2.56901550 2.50000000 0.000978 0.000978 0.999999
-3.00475883 -2.81477165 2.50000000 0.000978 0.000978 0.999999
-2.35386705 -3.32807350 2.50000000 0.000978 0.000978 0.999999
-3.12515783 -2.78633809 2.50000000 0.000978 0.000978 0.999999
-1.97080338 -3.53949237 2.50000000 0.000978 0.000978 0.999999
-2.21374178 -3.40149260 2.50000000 0.000978 0.000978 0.999999
-3.25195837 -2.70855045 2.50000000 0.000978 0.000978 0.999999
-3.41094685 -2.60730243 2.50000000 0.000978 0.000978 0.999999
-2.93903327 -2.83627605 2.50000000 0.000978 0.000978 0.999999
-2.35876322 -3.27530909 2.50000000 0.000978 0.000978 0.999999
-3.44457579 -2.39811468 2.50000000 0.000978 0.000978 0.999999
-3.23174310 -2.66045141 2.50000000 0.000978 0.000978 0.999999
-2.91909051 -2.96752357 2.50000000 0.000978 0.000978 0.999999
-1.90019846 -3.59819365 2.50000000 0.000978 0.000978 0.999999
-1.90182078 -3.59023428 2.50000000 0.000978 0.000978 0.999999
-2.25903511 -3.31023979 2.50000000 0.000978 0.000978 0.999999
-3.95524216 -1.74997473 2.50000000 0.000978 0.000978 0.999999
-1.00717580 -4.07073450 2.50000000 0.000978 0.000978 0.999999
-1.50706911 -3.73186707 2.50000000 0.000978 0.000978 0.999999
-1.14390874 -3.88880324 2.50000000 0.000978 0.000978 0.999999
-3.12228537 -2.55335975 2.50000000 0.000978 0.000978 0.999999
-1.06128526 -3.95268345 2.50000000 0.000978 0.000978 0.999999
-1.49596167 -3.64718342 2.50000000 0.000978 0.000978 0.999999
-1.21786797 -3.86951256 2.50000000 0.000978 0.000978 0.999999
-2.49083018 -3.01074982 2.50000000 0.000978 0.000978 0.999999
-1.03044629 -4.16097355 2.50000000 0.000978 0.000978 0.999999
-1.18661201 -3.85519624 2.50000000 0.000978 0.000978 0.999999
-1.16764164 -3.87298989 2.50000000 0.000978 0.000978 0.999999
-1.27540982 -3.95279932 2.50000000 0.000978 0.000978 0.999999
-1.58712924 -3.78245449 2.50000000 0.000978 0.000978 0.999999
-1.92333674 -3.32703567 2.50000000 0.000978 0.000978 0.999999
-2.03217101 -3.39368558 2.50000000 0.000978 0.000978 0.999999
-1.26970816 -3.79360485 2.50000000 0.000978 0.000978 0.999999
-2.10181332 -3.27778196 2.50000000 0.000978 0.000978 0.999999
-0.73312682 -4.17741394 2.50000000 0.000978 0.000978 0.999999
-2.47448373 -3.02931213 2.50000000 0.000978 0.000978 0.999999
-2.00803733 -3.27978301 2.50000000 0.000978 0.000978 0.999999
-2.25820231 -3.19292188 2.50000000 0.000978 0.000978 0.999999
-3.14001894 -2.53786039 2.50000000 0.000978 0.000978 0.999999
-2.57562518 -2.97057605 2.50000000 0.000978 0.000978 0.999999
-1.11183798 -4.08953476 2.50000000 0.000978 0.000978 0.999999
-1.45437574 -3.73281455 2.50000000 0.000978 0.000978 0.999999
-3.17571497 -2.50495815 2.50000000 0.000978 0.000978 0.999999
-2.11971498 -3.27205157 2.50000000 0.000978 0.000978 0.999999
-2.73492098 -2.83999133 2.50000000 0.000978 0.000978 0.999999
-2.74742079 -2.84452868 2.50000000 0.000978 0.000978 0.999999
-1.75245118 -3.50383735 2.50000000 0.000978 0.000978 0.999999
-1.34032345 -3.94551182 2.50000000 0.000978 0.000978 0.999999
-2.20398378 -3.24318910 2.50000000 0.000978 0.000978 0.999999
-2.89820528 -2.69258380 2.50000000 0.000978 0.000978 0.999999
-3.14746380 -2.40693140 2.50000000 0.000978 0.000978 0.999999
-3.20599699 -2.41848993 2.50000000 0.000978 0.000978 0.999999
-2.76916838 -2.71820784 2.50000000 0.000978 0.000978 0.999999
-2.44201183 -2.93978763 2.50000000 0.000978 0.000978 0.999999
-2.21552324 -3.10897803 2.50000000 0.000978 0.000978 0.999999
-3.80224419 -1.98675072 2.50000000 0.000978 0.000978 0.999999
-2.05441952 -3.21732354 2.50000000 0.000978 0.000978 0.999999
-3.27718592 -2.37318993 2.50000000 0.000978 0.000978 0.999999
-1.52806687 -3.59181952 2.50000000 0.000978 0.000978 0.999999
-3.81819773 -1.94847143 2.50000000 0.000978 0.000978 0.999999
-4.31023979 -0.31302419 2.50000000 0.000978 0.000978 0.999999
-4.32350969 0.13712490 2.50000000 0.000978 0.000978 0.999999
-4.29253244 -0.14641112 2.50000000 0.000978 0.000978 0.999999
-4.29759884 0.49865001 2.50000000 0.000978 0.000978 0.999999
1.57910752 -4.03060246 2.50000000 0.000978 0.000978 0.999999
-3.99642181 1.66037834 2.50000000 0.000978 0.000978 0.999999
1.60514581 -4.00013590 2.50000000 0.000978 0.000978 0.999999
-3.99017382 1.64596593 2.50000000 0.000978 0.000978 0.999999
2.23851943 -3.68585205 2.50000000 0.000978 0.000978 0.999999
-3.79316020 1.99706912 2.50000000 0.000978 0.000978 0.999999
-4.08518887 1.33523786 2.50000000 0.000978 0.000978 0.999999
-3.59652019 2.38976884 2.50000000 0.000978 0.000978 0.999999
-3.50653052 2.53807878 2.50000000 0.000978 0.000978 0.999999
-3.70916677 2.22962904 2.50000000 0.000978 0.000978 0.999999
-4.06812763 1.00021541 2.50000000 0.000978 0.000978 0.999999
-4.17291260 0.73838985 2.50000000 0.000978 0.000978 0.999999
-4.06662750 1.15866160 2.50000000 0.000978 0.000978 0.999999
-3.95428276 1.53057420 2.50000000 0.000978 0.000978 0.999999
-4.09123611 1.03193927 2.50000000 0.000978 0.000978 0.999999
-3.91083694 1.37326741 2.50000000 0.000978 0.000978 0.999999
-4.13616991 1.15189803 2.50000000 0.000978 0.000978 0.999999
-4.21581554 0.81488419 2.50000000 0.000978 0.000978 0.999999
-3.89871025 1.60866618 2.50000000 0.000978 0.000978 0.999999
-4.23114300 0.65240812 2.50000000 0.000978 0.000978 0.999999
-3.65026093 2.15721512 2.50000000 0.000978 0.000978 0.999999
-3.98472905 1.33623922 2.50000000 0.000978 0.000978 0.999999
-3.85177875 1.59030366 2.50000000 0.000978 0.000978 0.999999
-4.22895145 0.61207914 2.50000000 0.000978 0.000978 0.999999
-4.05599260 1.27066243 2.50000000 0.000978 0.000978 0.999999
-3.91585732 1.47580338 2.50000000 0.000978 0.000978 0.999999
-3.76969290 1.95036912 2.50000000 0.000978 0.000978 0.999999
-4.09363413 0.82958388 2.50000000 0.000978 0.000978 0.999999
-3.63723016 1.97948360 2.50000000 0.000978 0.000978 0.999999
-3.82022905 1.56564140 2.50000000 0.000978 0.000978 0.999999
-3.47091746 2.36440277 2.50000000 0.000978 0.000978 0.999999
-3.34591532 2.71660805 2.50000000 0.000978 0.000978 0.999999
-3.42973042 2.57481480 2.50000000 0.000978 0.000978 0.999999
-4.27222204 0.39226413 2.50000000 0.000978 0.000978 0.999999
-3.47684622 2.36277890 2.50000000 0.000978 0.000978 0.999999
2.86991334 -3.22881699 2.50000000 0.000978 0.000978 0.999999
2.32419372 -3.61104298 2.50000000 0.000978 0.000978 0.999999
2.30861926 -3.59513330 2.50000000 0.000978 0.000978 0.999999
2.60103822 -3.39166903 2.50000000 0.000978 0.000978 0.999999
2.23778033 -3.63648057 2.50000000 0.000978 0.000978 0.999999
2.35283065 -3.54704714 2.50000000 0.000978 0.000978 0.999999
2.35702229 -3.54201746 2.50000000 0.000978 0.000978 0.999999
0.61838913 -4.08831835 2.50000000 0.000978 0.000978 0.999999
0.18055972 -4.02305412 2.50000000 0.000978 0.000978 0.999999
0.86733627 -3.89154100 2.50000000 0.000978 0.000978 0.999999
0.26372850 -4.07390308 2.50000000 0.000978 0.000978 0.999999
0.83867919 -3.91858625 2.50000000 0.000978 0.000978 0.999999
0.60283911 -4.06521225 2.50000000 0.000978 0.000978 0.999999
2.10241890 -3.41446066 2.50000000 0.000978 0.000978 0.999999
1.30498600 -3.66926718 2.50000000 0.000978 0.000978 0.999999
0.26889902 -3.99921989 2.50000000 0.000978 0.000978 0.999999
0.86517203 -3.89816737 2.50000000 0.000978 0.000978 0.999999
0.46550030 -3.99448657 2.50000000 0.000978 0.000978 0.999999
1.35852528 -3.63656044 2.50000000 0.000978 0.000978 0.999999
-0.12013471 -4.29800320 2.50000000 0.000978 0.000978 0.999999
2.12018108 -3.33361530 2.50000000 0.000978 0.000978 0.999999
-0.40521771 -4.29495049 2.50000000 0.000978 0.000978 0.999999
1.88825095 -3.38845539 2.50000000 0.000978 0.000978 0.999999
1.27765679 -3.72186494 2.50000000 0.000978 0.000978 0.999999
0.88653868 -3.84025121 2.50000000 0.000978 0.000978 0.999999
1.39725828 -3.61459756 2.50000000 0.000978 0.000978 0.999999
0.32826257 -4.22217798 2.50000000 0.000978 0.000978 0.999999
1.14094520 -3.81212664 2.50000000 0.000978 0.000978 0.999999
0.92175674 -3.88449144 2.50000000 0.000978 0.000978 0.999999
0.88341308 -4.01485920 2.50000000 0.000978 0.000978 0.999999
1.00022113 -3.82232547 2.50000000 0.000978 0.000978 0.999999
0.17100215 -4.26133919 2.50000000 0.000978 0.000978 0.999999
-0.31894508 -4.21269321 2.50000000 0.000978 0.000978 0.999999
0.10701275 -4.30481529 2.50000000 0.000978 0.000978 0.999999
0.58825636 -4.12322330 2.50000000 0.000978 0.000978 0.999999
2.33584070 -3.26446676 2.50000000 0.000978 0.000978 0.999999
0.33792889 -4.09665394 2.50000000 0.000978 0.000978 0.999999
2.19444871 -3.37027645 2.50000000 0.000978 0.000978 0.999999
0.26211143 -4.28754616 2.50000000 0.000978 0.000978 0.999999
0.64402521 -3.92094803 2.50000000 0.000978 0.000978 0.999999
0.90541410 -3.92510962 2.50000000 0.000978 0.000978 0.999999
1.76886392 -3.54532075 2.50000000 0.000978 0.000978 0.999999
1.52959752 -3.53933573 2.50000000 0.000978 0.000978 0.999999
2.29213643 -3.32293582 2.50000000 0.000978 0.000978 0.999999
0.39462376 -4.19383526 2.50000000 0.000978 0.000978 0.999999
0.66837955 -4.08762360 2.50000000 0.000978 0.000978 0.999999
0.48413515 -4.08034992 2.50000000 0.000978 0.000978 0.999999
-0.14031577 -4.25429535 2.50000000 0.000978 0.000978 0.999999
1.96451187 -3.44811273 2.50000000 0.000978 0.000978 0.999999
2.46163678 -3.21212530 2.50000000 0.000978 0.000978 0.999999
-0.46868968 -4.29280663 2.50000000 0.000978 0.000978 0.999999
0.08065942 -4.09111309 2.50000000 0.000978 0.000978 0.999999
0.38821006 -4.18775034 2.50000000 0.000978 0.000978 0.999999
1.27390420 -3.91528702 2.50000000 0.000978 0.000978 0.999999
1.05841482 -4.08954906 2.50000000 0.000978 0.000978 0.999999
2.02323771 -3.51667953 2.50000000 0.000978 0.000978 0.999999
3.14375710 -2.91475987 2.50000000 0.000978 0.000978 0.999999
1.80921304 -3.66473889 2.50000000 0.000978 0.000978 0.999999
0.75341916 -4.10623312 2.50000000 0.000978 0.000978 0.999999
0.91263282 -4.11992121 2.50000000 0.000978 0.000978 0.999999
1.71203434 -3.63129878 2.50000000 0.000978 0.000978 0.999999
1.60146976 -3.67070246 2.50000000 0.000978 0.000978 0.999999
1.20421541 -3.97241974 2.50000000 0.000978 0.000978 0.999999
0.81961489 -4.16880226 2.50000000 0.000978 0.000978 0.999999
1.00204206 -4.13748789 2.50000000 0.000978 0.000978 0.999999
0.94242984 -4.01544809 2.50000000 0.000978 0.000978 0.999999
0.61764675 -4.17542124 2.50000000 0.000978 0.000978 0.999999
2.52997923 -3.26853728 2.50000000 0.000978 0.000978 0.999999
0.43660218 -4.26993704 2.50000000 0.000978 0.000978 0.999999
1.91105402 -3.59535456 2.50000000 0.000978 0.000978 0.999999
0.97071159 -4.02057743 2.50000000 0.000978 0.000978 0.999999
0.62356222 -4.17572021 2.50000000 0.000978 0.000978 0.999999
1.57715178 -3.75058961 2.50000000 0.000978 0.000978 0.999999
1.11927211 -3.92649698 2.50000000 0.000978 0.000978 0.999999
1.05954289 -4.15856647 2.50000000 0.000978 0.000978 0.999999
1.92610586 -3.70556831 2.50000000 0.000978 0.000978 0.999999
2.39834070 -3.40585303 2.50000000 0.000978 0.000978 0.999999
1.06799936 -4.16762018 2.50000000 0.000978 0.000978 0.999999
1.35189927 -3.97570896 2.50000000 0.000978 0.000978 0.999999
2.86665201 -3.10888839 2.50000000 0.000978 0.000978 0.999999
2.13100386 -3.54763746 2.50000000 0.000978 0.000978 0.999999
2.43367672 -3.45229340 2.50000000 0.000978 0.000978 0.999999
1.84569693 -3.68089199 2.50000000 0.000978 0.000978 0.999999
2.19604468 -3.58375001 2.50000000 0.000978 0.000978 0.999999
2.16809511 -3.49800634 2.50000000 0.000978 0.000978 0.999999
1.69710398 -3.83339787 2.50000000 0.000978 0.000978 0.999999
1.11081493 -4.14280939 2.50000000 0.000978 0.000978 0.999999
2.93660855 -3.05034566 2.50000000 0.000978 0.000978 0.999999
1.53700221 -4.00540304 2.50000000 0.000978 0.000978 0.999999
1.52272820 -3.84904099 2.50000000 0.000978 0.000978 0.999999
1.70442069 -3.77820778 2.50000000 0.000978 0.000978 0.999999
1.66292834 -3.92934871 2.50000000 0.000978 0.000978 0.999999
1.84460449 -3.79577041 2.50000000 0.000978 0.000978 0.999999
1.90850377 -3.79503298 2.50000000 0.000978 0.000978 0.999999
1.77248895 -3.89138174 2.50000000 0.000978 0.000978 0.999999
2.16392660 -3.63744664 2.50000000 0.000978 0.000978 0.999999
2.64011192 -3.03734040 2.50000000 0.000978 0.000978 0.999999
1.98811364 -3.33200645 2.50000000 0.000978 0.000978 0.999999
1.29801905 -3.56962180 2.50000000 0.000978 0.000978 0.999999
2.02965689 -3.30078483 2.50000000 0.000978 0.000978 0.999999
2.96848464 -2.96668243 2.50000000 0.000978 0.000978 0.999999
3.12415290 -2.86441636 2.50000000 0.000978 0.000978 0.999999
0.44621933 -3.91784525 2.50000000 0.000978 0.000978 0.999999
1.16631556 -3.64007926 2.50000000 0.000978 0.000978 0.999999
0.58274102 -3.85548997 2.50000000 0.000978 0.000978 0.999999
0.36720562 -3.92069197 2.50000000 0.000978 0.000978 0.999999
3.19388652 -2.79645014 2.50000000 0.000978 0.000978 0.999999
2.63621807 -3.03514862 2.50000000 0.000978 0.000978 0.999999
0.48670390 -3.87835574 2.50000000 0.000978 0.000978 0.999999
3.00870013 -2.88446498 2.50000000 0.000978 0.000978 0.999999
2.26562476 -3.16052246 2.50000000 0.000978 0.000978 0.999999
2.52103186 -3.04582191 2.50000000 0.000978 0.000978 0.999999
2.37623930 -3.12495136 2.50000000 0.000978 0.000978 0.999999
1.73926914 -3.38354945 2.50000000 0.000978 0.000978 0.999999
0.57507622 -3.85266805 2.50000000 0.000978 0.000978 0.999999
3.30615807 -2.67787290 2.50000000 0.000978 0.000978 0.999999
3.36394620 -2.63645148 2.50000000 0.000978 0.000978 0.999999
3.03160381 -2.80398154 2.50000000 0.000978 0.000978 0.999999
3.24468493 -2.71672702 2.50000000 0.000978 0.000978 0.999999
1.62325382 -3.37989354 2.50000000 0.000978 0.000978 0.999999
0.99452341 -3.63511300 2.50000000 0.000978 0.000978 0.999999
0.94780052 -3.67794275 2.50000000 0.000978 0.000978 0.999999
2.93421292 -2.85315633 2.50000000 0.000978 0.000978 0.999999
3.23261619 -2.72798228 2.50000000 0.000978 0.000978 0.999999
2.54368377 -3.00052357 2.50000000 0.000978 0.000978 0.999999
1.19885504 -3.54681945 2.50000000 0.000978 0.000978 0.999999
2.27746797 -2.98807812 2.50000000 0.000978 0.000978 0.999999
3.31362867 -2.54995060 2.50000000 0.000978 0.000978 0.999999
2.74106574 -2.83985019 2.50000000 0.000978 0.000978 0.999999
1.20826411 -3.48036504 2.50000000 0.000978 0.000978 0.999999
0.82622069 -3.66879201 2.50000000 0.000978 0.000978 0.999999
3.16001630 -2.58428216 2.50000000 0.000978 0.000978 0.999999
2.80259347 -2.74790144 2.50000000 0.000978 0.000978 0.999999
3.50206494 -2.42904997 2.50000000 0.000978 0.000978 0.999999
1.72475171 -3.29432201 2.50000000 0.000978 0.000978 0.999999
1.94614577 -3.16557217 2.50000000 0.000978 0.000978 0.999999
0.21959347 -3.95305777 2.50000000 0.000978 0.000978 0.999999
2.52140379 -2.94475198 2.50000000 0.000978 0.000978 0.999999
1.57784879 -3.37309289 2.50000000 0.000978 0.000978 0.999999
3.49525905 -2.40882254 2.50000000 0.000978 0.000978 0.999999
1.43832600 -3.42867994 2.50000000 0.000978 0.000978 0.999999
2.20312452 -3.07778239 2.50000000 0.000978 0.000978 0.999999
1.82555366 -3.26449299 2.50000000 0.000978 0.000978 0.999999
3.08022785 -2.72685242 2.50000000 0.000978 0.000978 0.999999
1.26737559 -3.45768666 2.50000000 0.000978 0.000978 0.999999
3.54251790 -2.46007681 2.50000000 0.000978 0.000978 0.999999
0.96153492 -3.59403515 2.50000000 0.000978 0.000978 0.999999
1.92874515 -3.20188165 2.50000000 0.000978 0.000978 0.999999
2.05561161 -3.13066387 2.50000000 0.000978 0.000978 0.999999
-2.89113951 3.21406674 2.50000000 0.000978 0.000978 0.999999
-2.69922090 3.36083126 2.50000000 0.000978 0.000978 0.999999
-2.65238452 3.38474107 2.50000000 0.000978 0.000978 0.999999
1.93342805 -3.12677217 2.50000000 0.000978 0.000978 0.999999
3.01725340 -2.56630516 2.50000000 0.000978 0.000978 0.999999
1.11567736 -3.50355935 2.50000000 0.000978 0.000978 0.999999
3.41969967 -2.39134431 2.50000000 0.000978 0.000978 0.999999
1.85902452 -3.16398239 2.50000000 0.000978 0.000978 0.999999
2.18692899 -2.99384499 2.50000000 0.000978 0.000978 0.999999
2.77623034 -2.67685747 2.50000000 0.000978 0.000978 0.999999
2.35892034 -2.92134786 2.50000000 0.000978 0.000978 0.999999
3.52283883 -2.31163192 2.50000000 0.000978 0.000978 0.999999
2.38112426 -2.89528155 2.50000000 0.000978 0.000978 0.999999
3.67676592 -2.26830077 2.50000000 0.000978 0.000978 0.999999
0.37947130 -3.85135198 2.50000000 0.000978 0.000978 0.999999
3.63105750 -2.26824141 2.50000000 0.000978 0.000978 0.999999
-2.34649181 3.62250757 2.50000000 0.000978 0.000978 0.999999
-2.94838953 3.11946678 2.50000000 0.000978 0.000978 0.999999
-2.65516186 3.30101752 2.50000000 0.000978 0.000978 0.999999
-1.93379569 3.81048131 2.50000000 0.000978 0.000978 0.999999
-2.85340834 3.14977694 2.50000000 0.000978 0.000978 0.999999
-2.17719269 3.62629962 2.50000000 0.000978 0.000978 0.999999
-2.88197851 3.14663076 2.50000000 0.000978 0.000978 0.999999
-2.23705959 3.58881903 2.50000000 0.000978 0.000978 0.999999
-2.11394048 3.75564313 2.50000000 0.000978 0.000978 0.999999
-2.15853024 2.96116447 2.50000000 0.000978 0.000978 0.999999
-3.13996220 1.46302795 2.50000000 0.000978 0.000978 0.999999
-3.90598845 0.51902282 2.50000000 0.000978 0.000978 0.999999
-3.97354889 0.31183636 2.50000000 0.000978 0.000978 0.999999
-3.01483107 1.93671799 2.50000000 0.000978 0.000978 0.999999
-2.84840655 2.02868938 2.50000000 0.000978 0.000978 0.999999
-3.34468746 1.05142331 2.50000000 0.000978 0.000978 0.999999
-4.01552582 0.19988334 2.50000000 0.000978 0.000978 0.999999
-3.34860134 0.98347592 2.50000000 0.000978 0.000978 0.999999
-4.09973478 0.18899715 2.50000000 0.000978 0.000978 0.999999
-3.88376617 0.76528859 2.50000000 0.000978 0.000978 0.999999
-3.02624702 1.32875109 2.50000000 0.000978 0.000978 0.999999
-4.26832962 0.29841298 2.50000000 0.000978 0.000978 0.999999
-4.00526047 0.51618451 2.50000000 0.000978 0.000978 0.999999
-2.53077126 2.55798340 2.50000000 0.000978 0.000978 0.999999
-3.86147690 -0.18875837 2.50000000 0.000978 0.000978 0.999999
-4.24057722 0.34871006 2.50000000 0.000978 0.000978 0.999999
-2.86659908 1.71612883 2.50000000 0.000978 0.000978 0.999999
-3.27485037 0.92937493 2.50000000 0.000978 0.000978 0.999999
-3.57002473 0.81073940 2.50000000 0.000978 0.000978 0.999999
-3.90925384 0.70025665 2.50000000 0.000978 0.000978 0.999999
-3.95022321 0.63475925 2.50000000 0.000978 0.000978 0.999999
-3.31507206 0.85243583 2.50000000 0.000978 0.000978 0.999999
-3.75531101 0.13117218 2.50000000 0.000978 0.000978 0.999999
-3.41587019 1.41300964 2.50000000 0.000978 0.000978 0.999999
-2.62749791 2.49790454 2.50000000 0.000978 0.000978 0.999999
-3.15302420 1.84746969 2.50000000 0.000978 0.000978 0.999999
-4.08467770 -0.28979421 2.50000000 0.000978 0.000978 0.999999
-3.63565159 0.63623214 2.50000000 0.000978 0.000978 0.999999
-3.89978981 0.48596466 2.50000000 0.000978 0.000978 0.999999
-3.19724035 1.13934898 2.50000000 0.000978 0.000978 0.999999
-3.57312918 0.93690765 2.50000000 0.000978 0.000978 0.999999
-3.42943048 1.03850436 2.50000000 0.000978 0.000978 0.999999
-2.96524954 1.70651495 2.50000000 0.000978 0.000978 0.999999
-3.20564842 1.35400093 2.50000000 0.000978 0.000978 0.999999
-3.92500925 0.68439662 2.50000000 0.000978 0.000978 0.999999
-3.71916723 0.30620217 2.50000000 0.000978 0.000978 0.999999
-3.70773745 0.24579000 2.50000000 0.000978 0.000978 0.999999
-3.12307143 1.67517185 2.50000000 0.000978 0.000978 0.999999
-3.75733972 0.59757209 2.50000000 0.000978 0.000978 0.999999
-3.77669525 0.36998963 2.50000000 0.000978 0.000978 0.999999
-2.94696236 1.51580548 2.50000000 0.000978 0.000978 0.999999
-2.84522057 1.76121354 2.50000000 0.000978 0.000978 0.999999
-4.00530005 0.22949862 2.50000000 0.000978 0.000978 0.999999
-3.74429655 0.10451841 2.50000000 0.000978 0.000978 0.999999
-3.86393833 0.33250046 2.50000000 0.000978 0.000978 0.999999
-3.38324952 1.27007711 2.50000000 0.000978 0.000978 0.999999
-2.44860816 2.76098037 2.50000000 0.000978 0.000978 0.999999
-3.15213633 1.50196767 2.50000000 0.000978 0.000978 0.999999
-2.15060258 3.03686643 2.50000000 0.000978 0.000978 0.999999
-3.37936783 1.05010867 2.50000000 0.000978 0.000978 0.999999
-3.01571918 1.48001933 2.50000000 0.000978 0.000978 0.999999
-2.84018612 1.77319515 2.50000000 0.000978 0.000978 0.999999
-3.17849708 1.68428016 2.50000000 0.000978 0.000978 0.999999
-3.85545254 0.72932047 2.50000000 0.000978 0.000978 0.999999
-3.76723599 0.90482533 2.50000000 0.000978 0.000978 0.999999
-2.71105480 2.00153923 2.50000000 0.000978 0.000978 0.999999
-3.09651089 1.83889127 2.50000000 0.000978 0.000978 0.999999
-2.76036668 2.18487668 2.50000000 0.000978 0.000978 0.999999
-4.19061089 -0.24349785 2.50000000 0.000978 0.000978 0.999999
-2.46924233 2.71860909 2.50000000 0.000978 0.000978 0.999999
-4.08164024 -0.13587570 2.50000000 0.000978 0.000978 0.999999
-3.41867185 1.37979507 2.50000000 0.000978 0.000978 0.999999
-3.80963182 0.75249237 2.50000000 0.000978 0.000978 0.999999
-2.81188917 2.02754068 2.50000000 0.000978 0.000978 0.999999
-4.08489990 -0.38821459 2.50000000 0.000978 0.000978 0.999999
-2.43636227 2.70788288 2.50000000 0.000978 0.000978 0.999999
-3.60076165 1.02929521 2.50000000 0.000978 0.000978 0.999999
-3.61638093 0.82083547 2.50000000 0.000978 0.000978 0.999999
-4.18585634 -0.59745979 2.50000000 0.000978 0.000978 0.999999
-3.22191048 1.10142279 2.50000000 0.000978 0.000978 0.999999
-4.02669907 0.04389477 2.50000000 0.000978 0.000978 0.999999
-3.60771537 0.41240120 2.50000000 0.000978 0.000978 0.999999
-4.15790272 -0.77145028 2.50000000 0.000978 0.000978 0.999999
-3.50097442 1.15880418 2.50000000 0.000978 0.000978 0.999999
-3.95290375 0.06099319 2.50000000 0.000978 0.000978 0.999999
-3.92893100 0.40779102 2.50000000 0.000978 0.000978 0.999999
-3.76622438 0.03677583 2.50000000 0.000978 0.000978 0.999999
-2.85692906 2.12555075 2.50000000 0.000978 0.000978 0.999999
-4.22319126 -0.63058233 2.50000000 0.000978 0.000978 0.999999
-3.94863009 0.44733822 2.50000000 0.000978 0.000978 0.999999
-4.14725971 -0.58567953 2.50000000 0.000978 0.000978 0.999999
-2.28754830 2.87348723 2.50000000 0.000978 0.000978 0.999999
-4.19611979 -0.85720158 2.50000000 0.000978 0.000978 0.999999
-2.58561373 2.36481285 2.50000000 0.000978 0.000978 0.999999
-2.62434959 2.55233693 2.50000000 0.000978 0.000978 0.999999
-2.97222757 1.70581603 2.50000000 0.000978 0.000978 0.999999
-3.85526562 0.26225567 2.50000000 0.000978 0.000978 0.999999
-4.07008123 0.47436523 2.50000000 0.000978 0.000978 0.999999
-3.61311293 0.75423729 2.50000000 0.000978 0.000978 0.999999
-3.56284952 0.72412348 2.50000000 0.000978 0.000978 0.999999
-3.60754347 0.65126109 2.50000000 0.000978 0.000978 0.999999
-3.87056565 0.69116414 2.50000000 0.000978 0.000978 0.999999
-4.16259909 -0.24583077 2.50000000 0.000978 0.000978 0.999999
-3.39071774 0.98653054 2.50000000 0.000978 0.000978 0.999999
-3.02570033 1.96548605 2.50000000 0.000978 0.000978 0.999999
-4.03891802 -0.49663138 2.50000000 0.000978 0.000978 0.999999
-3.89868736 0.83894354 2.50000000 0.000978 0.000978 0.999999
-4.13392019 0.26811671 2.50000000 0.000978 0.000978 0.999999
-2.82737780 1.89631271 2.50000000 0.000978 0.000978 0.999999
-3.83823919 0.11626148 2.50000000 0.000978 0.000978 0.999999
-4.23130894 0.20912981 2.50000000 0.000978 0.000978 0.999999
-2.86267948 2.14960241 2.50000000 0.000978 0.000978 0.999999
-4.10103559 -0.28710389 2.50000000 0.000978 0.000978 0.999999
-2.52818441 2.36611938 2.50000000 0.000978 0.000978 0.999999
-3.45778155 1.19475245 2.50000000 0.000978 0.000978 0.999999
-3.12275028 1.70989323 2.50000000 0.000978 0.000978 0.999999
-2.36866951 2.62129736 2.50000000 0.000978 0.000978 0.999999
-2.93859625 2.12808228 2.50000000 0.000978 0.000978 0.999999
-2.61389208 2.36204481 2.50000000 0.000978 0.000978 0.999999
-2.35993004 2.65082574 2.50000000 0.000978 0.000978 0.999999
-3.41780758 0.84731436 2.50000000 0.000978 0.000978 0.999999
-2.93311548 1.85341465 2.50000000 0.000978 0.000978 0.999999
-2.32355165 2.85508013 2.50000000 0.000978 0.000978 0.999999
-3.52253604 1.25203407 2.50000000 0.000978 0.000978 0.999999
-3.12939644 1.66359997 2.50000000 0.000978 0.000978 0.999999
-2.72513628 1.97918296 2.50000000 0.000978 0.000978 0.999999
-2.62062669 2.10137320 2.50000000 0.000978 0.000978 0.999999
-3.73341322 0.09175849 2.50000000 0.000978 0.000978 0.999999
-3.07634997 1.87679386 2.50000000 0.000978 0.000978 0.999999
-1.91335607 3.42486238 2.50000000 0.000978 0.000978 0.999999
-3.49189258 1.31605828 2.50000000 0.000978 0.000978 0.999999
-4.08087969 0.29638112 2.50000000 0.000978 0.000978 0.999999
-3.39729810 0.80999684 2.50000000 0.000978 0.000978 0.999999
-2.45459342 2.62784195 2.50000000 0.000978 0.000978 0.999999
-3.81211305 0.96290451 2.50000000 0.000978 0.000978 0.999999
-3.67097592 0.62683153 2.50000000 0.000978 0.000978 0.999999
-2.02769399 3.25095534 2.50000000 0.000978 0.000978 0.999999
-3.01951909 1.59705102 2.50000000 0.000978 0.000978 0.999999
-2.58739877 2.15951443 2.50000000 0.000978 0.000978 0.999999
-2.23417926 2.86533499 2.50000000 0.000978 0.000978 0.999999
-3.26713920 1.61789227 2.50000000 0.000978 0.000978 0.999999
-3.18563461 1.63844895 2.50000000 0.000978 0.000978 0.999999
-1.90891457 3.88438129 2.50000000 0.000978 0.000978 0.999999
-3.33252454 2.22697949 2.50000000 0.000978 0.000978 0.999999
-2.87774539 2.68111587 2.50000000 0.000978 0.000978 0.999999
-3.52389097 1.52186728 2.50000000 0.000978 0.000978 0.999999
-2.33178878 3.01554966 2.50000000 0.000978 0.000978 0.999999
-2.40016675 3.19079328 2.50000000 0.000978 0.000978 0.999999
-2.13857174 3.47777963 2.50000000 0.000978 0.000978 0.999999
-4.19024277 0.56220865 2.50000000 0.000978 0.000978 0.999999
-3.63701677 1.40488219 2.50000000 0.000978 0.000978 0.999999
-3.26021624 1.93421292 2.50000000 0.000978 0.000978 0.999999
-3.49190497 1.64595699 2.50000000 0.000978 0.000978 0.999999
-2.85286665 2.45047331 2.50000000 0.000978 0.000978 0.999999
-2.31850195 3.24088693 2.50000000 0.000978 0.000978 0.999999
-2.20033264 3.23665500 2.50000000 0.000978 0.000978 0.999999
-3.29292536 2.29434729 2.50000000 0.000978 0.000978 0.999999
-3.61147881 1.65894556 2.50000000 0.000978 0.000978 0.999999
-3.09471941 2.12561297 2.50000000 0.000978 0.000978 0.999999
-3.34170723 1.88216019 2.50000000 0.000978 0.000978 0.999999
-2.62088943 3.18662286 2.50000000 0.000978 0.000978 0.999999
-1.84057844 3.78213620 2.50000000 0.000978 0.000978 0.999999
-3.40393376 2.27443504 2.50000000 0.000978 0.000978 0.999999
-2.84139299 2.60242653 2.50000000 0.000978 0.000978 0.999999
-2.98499775 2.22752643 2.50000000 0.000978 0.000978 0.999999
-2.76760387 3.00247049 2.50000000 0.000978 0.000978 0.999999
-2.98855734 2.89669847 2.50000000 0.000978 0.000978 0.999999
-1.94294047 3.74524117 2.50000000 0.000978 0.000978 0.999999
-3.37461901 2.52841973 2.50000000 0.000978 0.000978 0.999999
-2.57560539 2.78090572 2.50000000 0.000978 0.000978 0.999999
-3.50632286 1.89580643 2.50000000 0.000978 0.000978 0.999999
-3.70800376 1.43952680 2.50000000 0.000978 0.000978 0.999999
-3.08185101 2.18207264 2.50000000 0.000978 0.000978 0.999999
-2.76104259 3.05051184 2.50000000 0.000978 0.000978 0.999999
-3.94917107 0.84224224 2.50000000 0.000978 0.000978 0.999999
-2.95609784 2.48317671 2.50000000 0.000978 0.000978 0.999999
-3.20040321 2.42384195 2.50000000 0.000978 0.000978 0.999999
-2.83071136 2.43749332 2.50000000 0.000978 0.000978 0.999999
-3.43941855 1.61905503 2.50000000 0.000978 0.000978 0.999999
-2.99472857 2.51675653 2.50000000 0.000978 0.000978 0.999999
-2.01136684 3.69730306 2.50000000 0.000978 0.000978 0.999999
-2.75428581 2.87169123 2.50000000 0.000978 0.000978 0.999999
-4.10336256 0.74238706 2.50000000 0.000978 0.000978 0.999999
-3.11575174 2.92710304 2.50000000 0.000978 0.000978 0.999999
-2.10060573 3.60171962 2.50000000 0.000978 0.000978 0.999999
-1.95582616 3.54738021 2.50000000 0.000978 0.000978 0.999999
-2.20379710 3.50315571 2.50000000 0.000978 0.000978 0.999999
-3.58024216 1.97000384 2.50000000 0.000978 0.000978 0.999999
-3.06588411 2.63490820 2.50000000 0.000978 0.000978 0.999999
-3.56873679 1.93831539 2.50000000 0.000978 0.000978 0.999999
-3.16947198 2.74158072 2.50000000 0.000978 0.000978 0.999999
-3.14313006 2.27101564 2.50000000 0.000978 0.000978 0.999999
-2.03806448 3.59544396 2.50000000 0.000978 0.000978 0.999999
-2.08460808 3.66896629 2.50000000 0.000978 0.000978 0.999999
-2.45888805 3.26355982 2.50000000 0.000978 0.000978 0.999999
-2.92701340 2.90385437 2.50000000 0.000978 0.000978 0.999999
-2.96962404 2.68162060 2.50000000 0.000978 0.000978 0.999999
-2.31550908 3.32019091 2.50000000 0.000978 0.000978 0.999999
-2.82506037 3.11289072 2.50000000 0.000978 0.000978 0.999999
-3.88577795 1.12037921 2.50000000 0.000978 0.000978 0.999999
-1.72922862 3.92772317 2.50000000 0.000978 0.000978 0.999999
-2.99134016 2.85333943 2.50000000 0.000978 0.000978 0.999999
-3.19480991 1.98756492 2.50000000 0.000978 0.000978 0.999999
-3.37419701 2.04712009 2.50000000 0.000978 0.000978 0.999999
-3.42243218 1.87981987 2.50000000 0.000978 0.000978 0.999999
-3.01622176 2.59331417 2.50000000 0.000978 0.000978 0.999999
-2.93679047 2.62129211 2.50000000 0.000978 0.000978 0.999999
-3.50004888 1.55728579 2.50000000 0.000978 0.000978 0.999999
-2.56079769 2.89825511 2.50000000 0.000978 0.000978 0.999999
-3.25328636 2.60255265 2.50000000 0.000978 0.000978 0.999999
-2.15679908 3.58424711 2.50000000 0.000978 0.000978 0.999999
-3.31522226 2.31580544 2.50000000 0.000978 0.000978 0.999999
-1.91058588 3.74630237 2.50000000 0.000978 0.000978 0.999999
-3.54470634 1.90249622 2.50000000 0.000978 0.000978 0.999999
-3.93138433 1.15918183 2.50000000 0.000978 0.000978 0.999999
-2.91273785 2.39103389 2.50000000 0.000978 0.000978 0.999999
-2.42668724 2.95581007 2.50000000 0.000978 0.000978 0.999999
-2.15368223 3.53952003 2.50000000 0.000978 0.000978 0.999999
-2.54714465 3.31305599 2.50000000 0.000978 0.000978 0.999999
-3.51255274 1.96750271 2.50000000 0.000978 0.000978 0.999999
-2.26194572 3.24616337 2.50000000 0.000978 0.000978 0.999999
-2.67068243 2.85360146 2.50000000 0.000978 0.000978 0.999999
-2.62754679 2.92062688 2.50000000 0.000978 0.000978 0.999999
-2.96540022 2.80384111 2.50000000 0.000978 0.000978 0.999999
-2.33019662 3.10988140 2.50000000 0.000978 0.000978 0.999999
-3.87411737 1.14967203 2.50000000 0.000978 0.000978 0.999999
-3.25626516 2.70319128 2.50000000 0.000978 0.000978 0.999999
-3.72323275 1.52585959 2.50000000 0.000978 0.000978 0.999999
-4.03112173 0.78171659 2.50000000 0.000978 0.000978 0.999999
-3.15159607 2.30689096 2.50000000 0.000978 0.000978 0.999999
-3.68935108 1.31449771 2.50000000 0.000978 0.000978 0.999999
-3.33769417 1.80080271 2.50000000 0.000978 0.000978 0.999999
-2.76465321 2.61186194 2.50000000 0.000978 0.000978 0.999999
-3.20918012 2.53908563 2.50000000 0.000978 0.000978 0.999999
-2.97652674 2.56652641 2.50000000 0.000978 0.000978 0.999999
-2.37124109 3.08427858 2.50000000 0.000978 0.000978 0.999999
-3.78633881 1.18168998 2.50000000 0.000978 0.000978 0.999999
-3.04998684 2.48462439 2.50000000 0.000978 0.000978 0.999999
-3.61514330 1.43045950 2.50000000 0.000978 0.000978 0.999999
-3.72309732 1.14134741 2.50000000 0.000978 0.000978 0.999999
-3.82025576 1.20894909 2.50000000 0.000978 0.000978 0.999999
-2.81813288 2.64158440 2.50000000 0.000978 0.000978 0.999999
-2.93357325 2.87259173 2.50000000 0.000978 0.000978 0.999999
-3.36409092 1.77847123 2.50000000 0.000978 0.000978 0.999999
-3.11990762 2.41293907 2.50000000 0.000978 0.000978 0.999999
-2.15458083 3.59877205 2.50000000 0.000978 0.000978 0.999999
-3.25249243 1.86224508 2.50000000 0.000978 0.000978 0.999999
-2.67243648 3.10839963 2.50000000 0.000978 0.000978 0.999999
-3.01923132 2.27860928 2.50000000 0.000978 0.000978 0.999999
-3.31816196 2.35520077 2.50000000 0.000978 0.000978 0.999999
-3.40634108 1.74496675 2.50000000 0.000978 0.000978 0.999999
-1.80219102 3.84801722 2.50000000 0.000978 0.000978 0.999999
-3.24210739 1.87152147 2.50000000 0.000978 0.000978 0.999999
3.91958547 -1.82944047 2.50000000 0.000978 0.000978 0.999999
1.44674373 -1.19241345 2.50000000 0.000978 0.000978 0.999999
-3.15753436 -1.71607721 2.50000000 0.000978 0.000978 0.999999
-0.06995463 -1.23828709 2.50000000 0.000978 0.000978 0.999999
-4.04739380 -1.31076300 2.50000000 0.000978 0.000978 0.999999
-3.45272923 -1.48375678 2.50000000 0.000978 0.000978 0.999999
1.63345194 -1.25201070 2.50000000 0.000978 0.000978 0.999999
-2.75587058 -1.23961091 2.50000000 0.000978 0.000978 0.999999
-1.17107248 -1.12304127 2.50000000 0.000978 0.000978 0.999999
0.07547021 -1.49914455 2.50000000 0.000978 0.000978 0.999999
3.24882603 -1.26389909 2.50000000 0.000978 0.000978 0.999999
-1.84152842 -1.58161843 2.50000000 0.000978 0.000978 0.999999
-0.57170272 -1.28992164 2.50000000 0.000978 0.000978 0.999999
0.91232681 -1.41966820 2.50000000 0.000978 0.000978 0.999999
2.72692037 -1.31373417 2.50000000 0.000978 0.000978 0.999999
-2.55251670 -1.06018996 2.50000000 0.000978 0.000978 0.999999
-3.18845582 -1.74772358 2.50000000 0.000978 0.000978 0.999999
-2.23827147 -1.21434712 2.50000000 0.000978 0.000978 0.999999
1.50935841 -1.39763749 2.50000000 0.000978 0.000978 0.999999
-1.53607297 -1.58987093 2.50000000 0.000978 0.000978 0.999999
2.63127184 -1.28501427 2.50000000 0.000978 0.000978 0.999999
-3.95149398 -1.57528460 2.50000000 0.000978 0.000978 0.999999
3.64617825 -1.23837042 2.50000000 0.000978 0.000978 0.999999
0.25763953 -1.09934342 2.50000000 0.000978 0.000978 0.999999
-2.93781185 -1.40468132 2.50000000 0.000978 0.000978 0.999999
2.86335802 -1.21660137 2.50000000 0.000978 0.000978 0.999999
2.67915034 -1.24351430 2.50000000 0.000978 0.000978 0.999999
-0.64206374 -1.13700998 2.50000000 0.000978 0.000978 0.999999
-3.94972682 -1.24465168 2.50000000 0.000978 0.000978 0.999999
